# .PCD v0.7 - Point Cloud Data file format
VERSION 0.7
FIELDS x y z
SIZE 4 4 4
TYPE F F F
COUNT 1 1 1
WIDTH 1538
HEIGHT 1
VIEWPOINT 0 0 0 1 0 0 0
POINTS 1538
DATA ascii
1.3500156 -2.0083849 0.55930376
3.3358021 -2.03987 0.52837896
3.4339948 -2.0019674 0.57267809
-0.55665088 -1.9567443 0.55119771
1.2903148 -1.9576606 0.56006384
1.3325504 -1.9675695 0.55852741
3.3578997 -1.9555148 0.52592707
3.4602325 -1.9523721 0.52936846
3.5287056 -1.9491273 0.58440256
-0.73753303 -1.8111448 0.5414694
-0.66842055 -1.8081293 0.53594834
-0.56857061 -1.8440061 0.55110037
1.2973554 -1.878747 0.58870733
1.3586783 -1.8185878 0.57433498
1.4467145 -1.817794 0.54771924
1.5420083 -1.804271 0.55608565
3.4587936 -1.8433498 0.55514401
3.5249424 -1.8179635 0.57935709
3.6173 -1.8017366 0.54335433
-0.73262107 -1.7984304 0.58531678
-0.65923828 -1.7983549 0.55703092
-0.59010059 -1.7956014 0.53301978
1.3505862 -1.7945788 0.5741719
1.4728748 -1.7937809 0.53131461
1.5433162 -1.7862495 0.5164184
3.4745917 -1.7900199 0.56664765
3.5430131 -1.7913799 0.5418669
3.6360331 -1.7941234 0.54795289
3.4454193 -0.2516897 0.50709689
3.6151388 -0.27411321 0.58597863
1.3460041 -0.10145491 0.57556123
3.4542103 -0.16122925 0.5100981
-0.58045316 -0.047325701 0.53779089
1.3420889 -0.048003174 0.58320409
-0.72926968 0.029399514 0.5420087
-0.66216278 0.022272121 0.51970029
-0.53699034 0.06068131 0.56447971
1.3414924 0.059616521 0.58116555
-0.53257692 0.15634182 0.58685201
1.3475842 0.10285036 0.52655768
-0.54962099 0.20615521 0.50629163
-0.73451304 1.7956347 0.55386728
-0.6564669 1.7924316 0.54426122
-0.59179068 1.7912767 0.51372325
1.3658881 1.7941077 0.5538944
1.4349065 1.7909374 0.54694068
1.5201859 1.7921973 0.54291564
3.4601567 1.7951804 0.55864286
3.5437777 1.7995148 0.53200591
3.6252217 1.7995656 0.54367924
-0.80665338 1.8134034 0.55757445
-0.73593682 1.8012241 0.54427505
-0.62044036 1.8889649 0.55204064
-0.55239451 1.8903592 0.5812313
-0.49027994 1.8861251 0.56262434
1.3434768 1.8601043 0.55950928
1.4489337 1.8076366 0.52796179
1.5192484 1.8073066 0.51797235
3.4481125 1.8509781 0.55201733
3.5586469 1.8042945 0.54042035
3.6313303 1.8038896 0.56172264
-0.61500579 1.9254484 0.5710746
-0.57045108 1.9504251 0.5457952
-0.45521557 1.9611182 0.55827928
1.3388387 1.9558508 0.56423604
3.3927145 1.9065275 0.58090425
3.4447985 1.9540054 0.56153148
-0.59083188 2.0032315 0.56569356
-0.45141736 2.05231 0.56585032
1.337903 2.0109711 0.57182264
3.441071 2.0057628 0.53239399
3.3412662 -2.1081746 0.63124543
-0.57261306 -2.0106344 0.63569123
1.3580344 -2.0069141 0.64387274
3.3392406 -2.0299666 0.62497455
-0.55091512 -1.9589247 0.63394046
1.2991513 -1.9543793 0.68845487
1.3146505 -1.9638147 0.68796229
3.3704264 -1.9520907 0.62479591
3.4704013 -1.9516593 0.62957406
3.5265961 -1.9441165 0.6552062
-0.72022927 -1.8106458 0.65941715
-0.63495606 -1.8109937 0.65303749
-0.5568459 -1.8354049 0.63459188
1.3589269 -1.818686 0.67566651
1.4426188 -1.8176317 0.65556031
1.5163659 -1.807111 0.64670587
3.4615493 -1.8447347 0.65278053
3.5776515 -1.8012879 0.67590761
3.6211641 -1.8025894 0.64166588
-0.73670733 -1.7989478 0.66140366
-0.63365102 -1.7989942 0.65030998
-0.58166784 -1.7987773 0.65880531
1.2984664 -1.7919124 0.60556316
1.3613449 -1.7958679 0.6658622
1.423363 -1.7921567 0.66377145
1.5211658 -1.7897923 0.63724983
3.3984101 -1.7998941 0.65817231
3.4711289 -1.7908196 0.64824212
3.5652022 -1.7893114 0.6397531
3.6370416 -1.7907994 0.63727582
3.4616234 -0.2561526 0.60379827
3.5441096 -0.26785368 0.64728618
3.6295154 -0.2655783 0.69353586
1.3726656 -0.12250371 0.69301474
1.4345913 -0.11110538 0.6829173
3.4575233 -0.15307155 0.6085943
-0.59676564 -0.051844154 0.6280781
1.3466105 -0.094523355 0.69435966
-0.71221125 0.026430532 0.62997741
-0.65342289 0.023762628 0.62714422
-0.5446319 0.039419424 0.65641749
1.3385332 0.046077654 0.66411102
-0.52896351 0.15505861 0.68233019
1.3557539 0.10479566 0.64834839
-0.71912134 1.7963077 0.6540786
-0.64010167 1.7940671 0.65339965
-0.58477688 1.7912463 0.61334586
1.3773899 1.7923713 0.66097647
1.4561899 1.7941358 0.65418786
1.5326409 1.7949319 0.64658284
3.3897886 1.7998599 0.64285499
3.4692612 1.7990439 0.67115045
3.5620019 1.7988782 0.62380016
3.6036067 1.7977579 0.62763196
-0.75412577 1.8035518 0.67140406
-0.6272406 1.8944732 0.63775682
-0.55871302 1.8851105 0.67767668
-0.47688451 1.8920407 0.66214931
1.350961 1.8707398 0.65990818
1.458295 1.8074147 0.61932474
1.5341359 1.8068475 0.64681458
3.4566915 1.8370886 0.63506395
3.5614631 1.8042417 0.65904355
3.6314545 1.8028363 0.638165
-0.61706614 1.9323438 0.67789274
-0.56203806 1.9330593 0.65278852
-0.45009121 1.9535004 0.64748251
1.3443364 1.9614909 0.6578604
3.4512 1.9513617 0.66030908
-0.57744116 2.0033784 0.65361631
-0.44755316 2.0404968 0.66483521
1.3466065 2.0103831 0.65309709
3.4155579 2.0057874 0.63760352
3.345037 -2.1125655 0.72963154
-0.57141924 -2.0155802 0.74737442
1.3649565 -2.0033369 0.75356376
3.3469687 -2.0309365 0.72635144
3.4770751 -2.0045164 0.76238883
-0.55878127 -1.9512422 0.76620573
1.3085842 -1.9475584 0.77007645
3.3744979 -1.9580003 0.72320342
3.4692457 -1.9491943 0.71485567
3.5279112 -1.922327 0.78942049
-0.72947246 -1.8069891 0.75228673
-0.64403677 -1.8083833 0.74913585
-0.56359929 -1.8349953 0.74390244
1.3626851 -1.817625 0.78108168
1.4485958 -1.8150175 0.75387383
1.5310127 -1.8053538 0.75843161
3.4677474 -1.8420349 0.75380671
3.563915 -1.8074085 0.7636745
3.6354351 -1.8006042 0.71833932
-0.72886938 -1.7985257 0.71211249
-0.65173334 -1.7979608 0.76601022
-0.5811134 -1.7982715 0.74039829
1.3406999 -1.793916 0.73665637
1.4509201 -1.7954857 0.75519407
1.5315816 -1.7886293 0.76163125
3.4808464 -1.7905788 0.77401555
3.5418549 -1.7908492 0.75002033
3.6280587 -1.7936996 0.74225026
3.4549379 -0.24649507 0.7383976
3.5736229 -0.26337758 0.75051951
3.6313033 -0.26335001 0.79713917
1.3919915 -0.11899061 0.75835413
1.4772782 -0.12520589 0.76060086
1.5563445 -0.13325302 0.77428818
3.4680638 -0.14631523 0.71192813
1.3692011 -0.075692557 0.76370412
3.4757457 -0.099830896 0.79894739
-0.72645164 0.030076675 0.71137619
-0.66307139 0.024727106 0.72533172
-0.53979802 0.044121765 0.7811774
1.3537583 0.03736297 0.76562351
-0.52291858 0.1613224 0.77863574
1.364058 0.10184736 0.7380116
-0.53376806 0.21780139 0.73940444
-0.73498094 1.790926 0.76481175
-0.64628434 1.7931923 0.7416876
-0.59084451 1.7920091 0.73543471
1.390085 1.7954602 0.75415224
1.4673328 1.7950681 0.75154066
1.5140605 1.797392 0.75609571
3.3931699 1.7980304 0.70406467
3.460103 1.7983232 0.77438939
3.5593777 1.797802 0.77961874
3.6109705 1.7979341 0.75120759
-0.74321485 1.8014342 0.77109855
-0.61863494 1.8859611 0.72131342
-0.55078441 1.8905805 0.7508136
-0.47117251 1.8935153 0.76784265
1.358953 1.8274049 0.76453495
1.4906869 1.8044043 0.72310591
1.5309036 1.8149241 0.72285056
3.457972 1.8500712 0.76499391
3.5323634 1.8030989 0.73638666
3.6383364 1.8072872 0.72502971
-0.62141013 1.9200211 0.73541319
-0.56140602 1.9311088 0.75620973
-0.44510937 1.9658855 0.75142276
1.3518429 1.9520363 0.76376933
3.4580956 1.9542503 0.7545588
-0.60214597 2.0017149 0.70185685
-0.58874375 2.0047655 0.72239339
-0.43905771 2.0424411 0.75830615
1.3544242 2.0099423 0.74893248
3.4524961 2.0053535 0.7398659
3.3530254 -2.1077976 0.82749563
-0.57011122 -2.0080948 0.83217961
1.3861463 -2.0030398 0.86661494
3.3541479 -2.0284472 0.82960963
3.4719527 -2.0014119 0.86123288
-0.5686636 -1.9527665 0.84302509
1.3317449 -1.9419274 0.88414598
1.4028337 -1.9808568 0.8780483
3.3575044 -1.953205 0.85542572
3.4294567 -1.9465576 0.8225137
3.5225296 -1.9448516 0.84838164
-0.75355923 -1.8108703 0.85729414
-0.67148381 -1.8113689 0.82611185
-0.57151634 -1.8367532 0.85332346
1.3517376 -1.8168737 0.87523752
1.4462353 -1.8167672 0.8577528
1.5451083 -1.804111 0.86471963
3.3543282 -1.8996129 0.88144368
3.4741838 -1.8517468 0.8644166
3.5671573 -1.8012931 0.82395351
3.6386082 -1.8008769 0.84536099
-0.74146354 -1.7969558 0.84406269
-0.62025237 -1.7971574 0.86282521
-0.58257687 -1.7935597 0.85310203
1.3585299 -1.7914624 0.83073723
1.4533927 -1.7980914 0.86615157
1.5172737 -1.7946702 0.85675013
3.4758694 -1.7942561 0.87176609
3.5380383 -1.7886136 0.83257401
3.6281085 -1.7870011 0.8483876
3.4685836 -0.24259612 0.82676315
3.5266376 -0.24842322 0.8212955
3.6004786 -0.25162804 0.88351202
1.3652976 -0.10687708 0.85768515
1.412694 -0.11654918 0.85181499
1.5341154 -0.1308272 0.83434135
3.4786873 -0.1418259 0.84661114
1.3714981 -0.041969556 0.8719089
1.4223516 -0.098206043 0.8550849
3.4707818 -0.078818321 0.8116954
-0.71512282 0.029924765 0.8185668
-0.64924198 0.026816079 0.84195542
-0.53132874 0.044160843 0.88101137
1.3690822 0.014299642 0.87756169
-0.51980227 0.15461476 0.87378842
1.37277 0.10735601 0.86205876
-0.52076137 0.20049173 0.87298167
-0.75346214 1.7942657 0.82521659
-0.6666649 1.7947054 0.84180266
-0.57866108 1.7964948 0.83922815
1.3853798 1.7969539 0.85616124
1.4626622 1.7965996 0.84544754
1.5201342 1.7977815 0.83742851
3.4719205 1.7986679 0.82623327
3.5408361 1.7982249 0.86650479
3.6207733 1.7988417 0.85401183
-0.75561476 1.8026297 0.87346983
-0.62789714 1.8932602 0.82806104
-0.54793179 1.8861233 0.8779273
-0.46182409 1.8932252 0.879812
1.3578664 1.8651345 0.8590225
1.4300871 1.8079842 0.83445001
1.5056076 1.8054385 0.82251489
3.4644208 1.8461907 0.85594988
3.5407531 1.8041663 0.84260839
3.6358509 1.8024569 0.84703851
-0.60091829 1.931145 0.86365807
-0.55131054 1.9298775 0.85879672
-0.44870204 1.9423854 0.85198635
1.3565952 1.9599781 0.86622745
3.4629011 1.9504752 0.86169201
-0.57223415 2.0034842 0.84876615
-0.43422854 2.0432355 0.85459167
1.359422 2.0037522 0.87016517
3.4551678 2.0057139 0.83096516
3.3575265 -2.1099291 0.9418081
-0.58883965 -2.0073175 0.95439708
1.3740282 -2.0102584 0.93189842
3.3575583 -2.0373654 0.92781597
3.4427052 -2.0271783 0.94492912
-0.56183195 -1.9593767 0.94725871
1.3234023 -1.9518322 0.96016127
1.4013376 -1.9566925 0.9636656
3.3577476 -1.9731736 0.9453547
3.4208364 -1.945457 0.92595863
3.5184598 -1.9523625 0.92518818
-0.76039571 -1.8076864 0.9678359
-0.67416644 -1.8097934 0.93181103
-0.59296823 -1.8211544 0.93192178
1.2923675 -1.8411164 0.99599874
1.3539083 -1.8158478 0.9646374
1.4531595 -1.8153728 0.95936841
1.5490239 -1.8062347 0.9504652
3.3655198 -1.8969047 0.99865448
3.4787483 -1.8463539 0.94294482
3.5220423 -1.8217709 0.93267
3.6489391 -1.8009858 0.93353361
-0.76256168 -1.7973731 0.93644214
-0.66498768 -1.7989445 0.95717192
-0.58558947 -1.7976421 0.93825138
1.3748111 -1.7938007 0.97589856
1.4557426 -1.7976117 0.96570468
1.5160552 -1.7956349 0.95484561
1.6037433 -1.7961599 0.9520303
3.47703 -1.7891333 0.918437
3.5364037 -1.7883095 0.95025975
3.6273627 -1.7905245 0.97162414
3.4730399 -0.23476265 0.92466819
3.5540283 -0.25664562 0.91951025
3.6481056 -0.26308322 0.92771375
1.3722394 -0.10598909 0.95145988
1.4298848 -0.1195423 0.95109862
1.5245838 -0.12542355 0.93498826
3.4831812 -0.15084229 0.95198274
1.3764688 -0.067852989 0.94537455
1.4443274 -0.097908899 0.94147909
3.4757657 -0.089958549 0.91109449
-0.71029335 0.029835552 0.92095554
-0.62296581 0.025595702 0.95403373
-0.52490157 0.045831252 0.98034072
1.3755927 0.017277101 0.96367133
-0.5150075 0.13685513 0.9823848
1.3808432 0.10543635 0.96242934
-0.50955844 0.20244162 0.97466516
-0.75316912 1.7930779 0.97620332
-0.65313411 1.7940218 0.94150388
1.3690126 1.7957109 0.95558506
1.445281 1.7979245 0.94117433
1.5243773 1.7966936 0.93842721
3.3949065 1.7959956 0.9955675
3.4843326 1.79897 0.97109973
3.5409832 1.7960987 0.95469731
3.6232381 1.7976266 0.98512459
-0.75478029 1.8042308 0.95495355
-0.62891239 1.8922135 0.937617
-0.54906696 1.8887792 0.97847456
-0.44683999 1.8926162 0.97040594
1.3655179 1.8543394 0.97017294
1.4240887 1.8034402 0.95431721
1.5167495 1.8055429 0.9314158
3.4704723 1.8457199 0.94699782
3.5689373 1.805301 0.9378475
3.6380928 1.8059089 0.96734041
-0.6123383 1.9208914 0.93640041
-0.57857418 1.9328709 0.97714418
-0.45568833 1.9305487 0.95480603
1.3635161 1.9594829 0.95568573
3.4637432 1.9496588 0.94621235
-0.42913985 2.0433831 0.94915754
1.3634918 2.0061979 0.92817473
3.470747 2.0049033 0.94414008
3.3508215 -2.1077032 1.0381875
-0.59220672 -2.0060692 1.0352072
1.3818395 -2.0064816 1.0239798
3.3610256 -2.0339723 1.0346565
3.4456694 -2.0163224 1.0135038
-0.58462954 -1.9451373 1.022356
1.3456082 -1.9463685 1.0822251
1.4064326 -1.942448 1.0681087
3.3719974 -1.9581077 1.0390073
3.4399428 -1.9444315 1.0220338
3.5343263 -1.9490862 1.0252116
-0.76512301 -1.8097458 1.0285628
1.3550134 -1.8189522 1.0768064
1.4615002 -1.8165773 1.0472161
1.5516511 -1.8023627 1.0481355
3.3985863 -1.8989539 1.0189947
3.4860547 -1.8486916 1.052839
3.5255551 -1.8303401 1.0262362
3.6409397 -1.8007563 1.0491519
1.3613522 -1.7942967 1.0839887
1.4485594 -1.7957472 1.0691806
1.5196898 -1.7938534 1.0523455
3.4926715 -1.7914088 1.0777571
3.5521951 -1.7898066 1.0634017
3.6568546 -1.7908113 1.0452499
3.4824736 -0.22208327 1.0445244
3.5632181 -0.24803782 1.016466
3.6326442 -0.27154166 1.0501193
1.3840714 -0.10805597 1.0555863
1.4480751 -0.11889988 1.0506291
1.5372529 -0.12465866 1.0353447
3.4795547 -0.16110891 1.0181789
1.3844017 -0.038436383 1.0678184
1.4506228 -0.096408546 1.0376611
1.5179453 -0.098537922 1.0269043
3.4855552 -0.087821752 1.0182332
-0.71860069 0.029174507 1.0638734
-0.65338385 0.028069774 1.0422899
-0.51863611 0.040883441 1.0811266
1.382628 0.038651951 1.0570164
-0.50766957 0.1590157 1.0832773
1.3829839 0.10681291 1.0373732
-0.50649786 0.20476612 1.0775948
-0.7751708 1.7904934 1.0422263
1.3766973 1.7987466 1.0148306
1.4584508 1.7974342 1.0442536
1.5217428 1.7956822 1.0408406
3.4728649 1.7972111 1.0449935
3.5537152 1.7991483 1.0499724
3.62676 1.7984982 1.0260493
-0.75702119 1.8024476 1.0319685
-0.61098313 1.893856 1.0152795
-0.53640956 1.8914549 1.066669
-0.44824329 1.8845267 1.047101
1.3739333 1.8409777 1.0763909
1.4492198 1.8263742 1.05295
1.5293601 1.803961 1.0304294
3.4728069 1.8621612 1.0416169
3.5273409 1.8128004 1.0681038
3.6529987 1.8057156 1.0656594
-0.61298263 1.9002835 1.0474155
-0.57104683 1.9278806 1.0752041
-0.43696702 1.9274265 1.0499622
1.3687969 1.9512072 1.057659
1.4578935 1.9475867 1.0484447
3.4704781 1.9717804 1.041135
-0.41980892 2.0401084 1.0609553
1.3706644 2.0034781 1.0392954
3.4574382 2.0033393 1.0465258
3.365813 -2.1079178 1.1384406
1.3900757 -2.0052462 1.1488645
3.3686895 -2.0223851 1.1304684
3.4446211 -2.0204506 1.1636701
3.5015509 -2.0022495 1.1600561
1.3211093 -1.9431841 1.1642509
1.4135264 -1.9549288 1.1589223
3.0831406 -1.9308681 1.1987758
3.1652808 -1.9368451 1.1971166
3.2532303 -1.9421587 1.195424
3.3795366 -1.956888 1.1413095
3.4546976 -1.943565 1.1269677
3.542949 -1.9569526 1.1466637
1.2996639 -1.8971269 1.1259127
1.3464746 -1.8266717 1.1847702
1.4650459 -1.8148425 1.1751961
1.5623753 -1.8041214 1.1273513
3.1598811 -1.8516414 1.1978605
3.2777519 -1.8467873 1.1921411
3.3708594 -1.8360579 1.190259
3.4841318 -1.8336488 1.1729974
3.5199184 -1.8371751 1.1625242
3.632019 -1.8045311 1.1391885
1.3657483 -1.795734 1.1621157
1.4454792 -1.7939487 1.1736896
1.5155931 -1.7959319 1.1557208
1.6000295 -1.7963784 1.1751788
3.2676885 -1.7890291 1.1963736
3.3504293 -1.7890725 1.1935226
3.4318175 -1.7876526 1.1825716
3.5384438 -1.7614143 1.162499
3.6419027 -1.7718678 1.1537625
3.4848018 -1.620831 1.1902467
3.5347571 -1.6416507 1.1800181
3.6339653 -1.6537371 1.1725148
3.49072 -1.5650977 1.189212
3.5362515 -1.5421747 1.1799108
3.6358073 -1.5551031 1.1752009
3.489948 -1.4445035 1.1940491
3.5366578 -1.446702 1.1813986
3.6458948 -1.4535866 1.1740289
3.4889312 -1.3396965 1.1839912
3.5276403 -1.3515842 1.1840124
3.6522732 -1.3443164 1.1733006
3.4978666 -1.2701678 1.1861973
3.5473113 -1.2475731 1.1808329
3.649334 -1.2401952 1.1736369
3.4917216 -1.1589004 1.1857294
3.5458736 -1.1447613 1.1807766
3.6600239 -1.1519804 1.1737005
3.4790263 -1.0156945 1.1927772
3.5439382 -1.0444074 1.182234
3.6455879 -1.0501772 1.1733435
3.487684 -0.95922166 1.1862358
3.5512991 -0.93866694 1.1812267
3.6523874 -0.94547147 1.1748514
3.4829552 -0.86113834 1.193354
3.5432305 -0.83827639 1.1803365
3.6414766 -0.8521508 1.1739364
3.4862373 -0.73831469 1.1910261
3.5449028 -0.7509979 1.1832354
3.6353006 -0.74870437 1.1769662
3.4824286 -0.64339137 1.1903516
3.5501513 -0.64700335 1.1803553
3.6627076 -0.64077383 1.17729
3.4795132 -0.57496196 1.1919278
3.5413237 -0.56738603 1.1839027
3.6498911 -0.57665467 1.175462
3.4745593 -0.22094868 1.1309292
3.5451615 -0.25642791 1.1551539
3.6752274 -0.27034906 1.1989279
1.3857002 -0.10890505 1.1640704
1.4630198 -0.1203412 1.148818
1.5490067 -0.12425768 1.1331365
3.4839532 -0.16363139 1.1237884
1.3853815 -0.077032581 1.163924
1.4443028 -0.097902045 1.1392784
1.5442481 -0.096789613 1.1241201
3.487669 -0.091516256 1.1056378
-0.70710582 0.037136793 1.1219623
-0.66322243 0.028863318 1.1210334
-0.53725529 0.038255114 1.1881696
1.392011 0.02596204 1.1579983
1.4006896 0.069627538 1.1618603
-0.50430858 0.14155416 1.1844413
1.3907259 0.10442358 1.1459651
-0.50239301 0.21104816 1.1696409
-0.49604988 0.20277481 1.1537436
3.4812386 0.57063568 1.1932796
3.5483789 0.5732851 1.1840922
3.659169 0.58431941 1.1796999
3.4817164 0.65745372 1.1931721
3.5455804 0.64918602 1.1852603
3.6473455 0.64563394 1.179507
3.4888587 0.75628626 1.197207
3.5435557 0.75201362 1.1864547
3.6295969 0.75337017 1.1803784
3.477453 0.83427972 1.1928685
3.5475464 0.85222828 1.185457
3.6400559 0.85344088 1.1785455
3.4799423 0.95106894 1.1921641
3.5491724 0.95496857 1.1835859
3.6514051 0.95855546 1.1786124
3.4752102 1.0384189 1.1920739
3.5403605 1.0473104 1.1855199
3.6540554 1.0507714 1.1766512
3.4774191 1.1547729 1.1954119
3.5418873 1.1523718 1.1856472
3.6510284 1.1494946 1.1769937
3.4799204 1.243026 1.1967729
3.54494 1.2538953 1.1860676
3.6451538 1.2460724 1.1807108
3.4881136 1.3461637 1.1910486
3.5379243 1.3507957 1.186291
3.6545455 1.353026 1.1780896
3.4824574 1.4473289 1.1903408
3.5341227 1.4584321 1.1858108
3.6561844 1.4472686 1.1780471
3.4769535 1.5466061 1.1928138
3.5469255 1.5637621 1.1830961
3.6530399 1.540563 1.1797855
3.4784138 1.6540865 1.1935395
3.5486224 1.6591625 1.1849992
3.6371441 1.6636555 1.1790372
1.391713 1.7929357 1.1425643
1.4487562 1.7973337 1.141215
1.5403895 1.7964172 1.1413975
3.4910045 1.791796 1.1301568
3.5480034 1.7713386 1.1741264
3.6423688 1.7737468 1.1701145
-0.61371303 1.8908961 1.1420368
-0.52569807 1.8909427 1.164694
-0.44015205 1.8918289 1.1486703
1.3826295 1.8377757 1.1812886
1.4633555 1.8202904 1.1405108
1.5404799 1.8064566 1.1373453
3.2234073 1.8501947 1.1979978
3.3768017 1.8443433 1.1969565
3.4669659 1.8548242 1.1703143
3.5618944 1.807302 1.1640961
3.6501496 1.8056905 1.1434844
-0.60322261 1.9007456 1.1030235
-0.54368073 1.9277867 1.1753742
-0.43039554 1.9380705 1.1637377
-0.39710927 1.9273304 1.1310513
1.3756407 1.9535476 1.1554465
1.463783 1.9576517 1.1221308
3.2471499 1.9666715 1.1981602
3.3684573 1.9595056 1.1946845
3.467104 1.9600707 1.1661572
-0.415829 2.0391886 1.156657
1.3797143 2.008182 1.1405637
3.3477378 2.0183496 1.1938723
3.4660788 2.0116484 1.1586592
3.3746257 -2.1031346 1.2321311
1.3983697 -2.0103369 1.2539915
1.7334468 -2.0042174 1.2856321
1.8376275 -2.0042343 1.2796922
1.9318213 -2.0082512 1.2751141
2.0408866 -2.0080538 1.2735919
2.1584265 -2.0097663 1.2700701
2.2387567 -2.0010629 1.2536401
2.3368554 -2.0112312 1.2595686
2.4178257 -2.0031955 1.2569417
2.5302279 -2.0056956 1.2498195
2.6479425 -2.005702 1.2421095
2.7316589 -2.0060825 1.2412319
2.8677907 -2.0011311 1.2261451
2.92171 -2.0072315 1.2469242
3.0417786 -2.0025833 1.2120445
3.1444433 -2.0008161 1.2088493
3.2569475 -2.0278649 1.2854348
3.3712516 -2.0329089 1.2368426
3.4041932 -2.0305271 1.2500114
1.3278075 -1.9336939 1.2557689
1.4095443 -1.9464018 1.2798953
1.6719322 -1.910023 1.2827322
1.73172 -1.943349 1.274121
1.8353659 -1.9572777 1.2648908
1.9309981 -1.9419274 1.2588739
2.026166 -1.9425483 1.2500464
2.1491995 -1.9444615 1.2406745
2.2203498 -1.9520285 1.2386613
2.3523936 -1.9346387 1.2365962
2.4684691 -1.935354 1.2316438
2.5402179 -1.9306202 1.2349479
2.6496999 -1.9359235 1.2268003
2.7297082 -1.9397764 1.2256562
2.8401861 -1.9371562 1.2210212
2.9375203 -1.9302683 1.2134587
3.071856 -1.9608266 1.251785
3.1661501 -1.9684949 1.2719529
3.2323637 -1.9689724 1.2818589
3.3840754 -1.9516865 1.2321413
3.4637561 -1.9463444 1.2330546
3.558393 -1.9421897 1.277974
3.6110821 -1.9114034 1.2433116
1.3592267 -1.8196974 1.2831452
1.4718819 -1.8135843 1.2655885
1.5212376 -1.8011739 1.2421041
1.6641691 -1.8658624 1.2761531
1.7286818 -1.842447 1.2835875
1.8302233 -1.8411082 1.2756789
1.9275184 -1.8459704 1.2667881
2.0304329 -1.8372401 1.2561193
2.136632 -1.8334512 1.2459285
2.2169259 -1.8728361 1.238669
2.3443656 -1.8346987 1.2383099
2.462096 -1.8377612 1.2370508
2.5539875 -1.8328208 1.234972
2.6431971 -1.8327917 1.2362758
2.7225096 -1.8270518 1.2337524
2.831038 -1.8354199 1.2223656
2.9259815 -1.8469706 1.2152028
3.0559425 -1.8613024 1.2570767
3.1650336 -1.8532817 1.2527509
3.2710643 -1.8544197 1.2430331
3.3837879 -1.8436656 1.2700202
3.4812553 -1.8727937 1.2859792
3.5436943 -1.8664732 1.2869247
3.6192172 -1.8040819 1.2307031
1.3719403 -1.791819 1.2546525
1.454739 -1.7928761 1.2723043
1.5241411 -1.7937258 1.2578082
1.6275997 -1.7808157 1.2868123
1.7242727 -1.7931635 1.2776703
1.8284981 -1.7838972 1.2912927
1.9388686 -1.7841345 1.275589
2.0258229 -1.7842779 1.2624696
2.1380205 -1.7830955 1.2576263
2.2249217 -1.782595 1.2667778
2.3320029 -1.7841142 1.2734369
2.4642506 -1.7792989 1.268083
2.5633719 -1.7825202 1.2633809
2.654439 -1.7807167 1.2646289
2.7530513 -1.7821523 1.276912
2.8468192 -1.7791555 1.2565162
2.9307826 -1.7778164 1.2427394
3.0590494 -1.7783475 1.2343816
3.1499584 -1.7791543 1.2429465
3.2384009 -1.7806892 1.2562563
3.3348384 -1.7838295 1.2438242
3.4691114 -1.7612307 1.2938348
3.5730515 -1.7561669 1.2905649
3.6161377 -1.7482265 1.250602
1.4455096 -1.654614 1.2974718
1.5589756 -1.6354735 1.2893164
1.6018288 -1.6522779 1.2839625
3.4924333 -1.6372154 1.2724305
3.5302274 -1.6545249 1.2920265
3.6055655 -1.6449226 1.2779801
1.4470142 -1.5299174 1.2961146
1.5469601 -1.5436054 1.2877412
1.60168 -1.540899 1.2895128
3.4706078 -1.5312438 1.2901319
3.5602021 -1.557404 1.2885456
3.6157069 -1.5455383 1.2831933
1.4429109 -1.4351635 1.2976935
1.5476726 -1.4432716 1.2910256
1.6036894 -1.455379 1.2825418
3.4935474 -1.4550197 1.2637236
3.5483837 -1.4513229 1.2890809
3.6206157 -1.4323287 1.2768102
1.4426277 -1.3404559 1.2983408
1.5499725 -1.3422238 1.2898932
1.6032715 -1.3781404 1.2827523
3.483077 -1.3446472 1.2801324
3.5664892 -1.3558499 1.2849298
3.6259816 -1.3486747 1.29039
1.4404265 -1.2345865 1.2968602
1.5448955 -1.2398299 1.2900988
1.6080089 -1.2696292 1.2852969
3.4844539 -1.2714041 1.2715962
3.5302641 -1.2316372 1.2857828
3.6089771 -1.2588589 1.2795545
1.3877069 -1.1986176 1.294776
1.4377787 -1.1358347 1.2955408
1.5554482 -1.1401097 1.2871786
1.6046443 -1.1403363 1.292779
3.4866557 -1.1340091 1.2652513
3.5684309 -1.1404204 1.280592
3.6147456 -1.1353192 1.2878699
1.4404068 -1.0494704 1.2980053
1.5463846 -1.0417542 1.2894182
1.6076555 -1.032948 1.2924744
3.4737682 -1.056946 1.2732325
3.5373931 -1.0486293 1.2762136
3.6263633 -1.0564772 1.2877959
1.4504309 -0.95155048 1.2973449
1.5533855 -0.95105112 1.2880254
1.604421 -0.94644153 1.2909236
3.4863691 -0.93414867 1.2809424
3.563889 -0.94080138 1.2891757
3.6416011 -0.95987386 1.2774324
1.440845 -0.84441346 1.2966138
1.5504777 -0.84673488 1.2861168
1.6050531 -0.83760345 1.288385
3.4642127 -0.85128343 1.272547
3.549886 -0.86163735 1.2786515
3.6172714 -0.82903266 1.285825
1.4389164 -0.74617273 1.2968947
1.548486 -0.73368382 1.2866805
1.6053954 -0.75095558 1.2923769
3.493149 -0.72407097 1.2761021
3.5474494 -0.74986374 1.2761197
3.6275954 -0.7320013 1.2786093
1.4581542 -0.64573431 1.2940553
1.5580593 -0.64730793 1.2900867
1.6047676 -0.66172671 1.2924014
3.4880869 -0.64810091 1.2618501
3.5542245 -0.64998621 1.2629421
3.6402829 -0.63352549 1.2760878
1.4327939 -0.54572105 1.2963957
1.5496744 -0.55209976 1.2844435
1.6038013 -0.55353045 1.2931402
3.4895966 -0.57061577 1.2689404
3.5575941 -0.54906553 1.287825
3.651876 -0.55790657 1.28473
1.3859771 -0.47477406 1.2929374
1.4464872 -0.44672889 1.294769
1.5405324 -0.44541812 1.2898362
3.4879074 -0.43916729 1.2983054
3.5673299 -0.46302828 1.2759025
3.6293993 -0.43472332 1.2809809
1.453535 -0.35079041 1.2923023
1.5561888 -0.35640368 1.2845381
1.6123608 -0.39685833 1.294549
3.4849677 -0.39310691 1.295877
3.5337367 -0.33777297 1.2790546
3.6413627 -0.33217686 1.2802358
1.4595555 -0.24849837 1.2911851
1.5544122 -0.23411819 1.2869588
3.4835935 -0.22513357 1.2151017
3.5660448 -0.2816042 1.2976992
1.3869144 -0.11622261 1.2679889
1.4569162 -0.12051054 1.2517391
1.5567878 -0.12387297 1.2292333
1.6089555 -0.15108186 1.2996197
3.2372608 -0.12617254 1.2999103
3.4852989 -0.15440443 1.2574388
1.0779252 -0.092710137 1.2992302
1.3944106 -0.072779767 1.2583416
1.4227428 -0.084620692 1.2482426
1.5204935 -0.098067477 1.2323496
3.5410666 -0.06260331 1.2478123
-0.70612133 0.032801211 1.269538
-0.66504049 0.029542059 1.2220237
-0.53209788 0.04114126 1.2870114
1.2891904 0.079065867 1.2971426
1.3946615 0.05326011 1.2552094
1.4034491 0.027766598 1.2580299
3.6602325 0.036769807 1.2885282
-0.50446665 0.16655004 1.2525854
-0.49186382 0.17172594 1.2481929
1.2735848 0.10309616 1.2979382
1.3787608 0.12460253 1.2483056
1.4164925 0.11822772 1.2630804
1.5179836 0.1745865 1.2934961
-0.50146085 0.21369228 1.2566488
1.3835596 0.26626757 1.2958802
1.4266934 0.25467455 1.2941262
1.5500121 0.24869801 1.2848898
1.3970786 0.34831941 1.2851934
1.4560879 0.35376158 1.2889186
1.5473059 0.35554227 1.2887424
1.4511293 0.45011941 1.2908397
1.5530372 0.4600417 1.2857525
1.6004808 0.41231242 1.2960421
1.3948829 0.54524034 1.299961
1.4501748 0.54611355 1.2906481
1.5443726 0.55773944 1.2908541
3.4832187 0.5785163 1.2683353
3.5149443 0.58576459 1.2173784
3.617224 0.57705241 1.293571
1.3872807 0.63898766 1.2962636
1.4533358 0.65619773 1.2892065
1.5456263 0.66307688 1.2899486
3.4842527 0.66024518 1.2645468
3.5124998 0.65126371 1.2365339
3.6397324 0.6543774 1.2292378
1.4430968 0.7540614 1.2917829
1.5429792 0.75916213 1.2924609
3.4871948 0.75848091 1.2633408
3.5150914 0.75316256 1.2142763
3.6265163 0.76547116 1.2176108
1.3827662 0.83665341 1.298086
1.4430991 0.86460137 1.2923094
1.5403576 0.85927647 1.2912292
3.4829459 0.85653347 1.2635747
3.5244803 0.84704947 1.220292
3.6232662 0.85083139 1.2133229
1.3975638 0.9297092 1.2928574
1.4417167 0.94900745 1.2903575
1.54355 0.95687699 1.2911166
3.4877763 0.9534837 1.2626814
3.5114293 0.94773525 1.2509296
3.6459796 0.93934375 1.2270393
1.3890653 1.0772426 1.2959369
1.4279833 1.0433416 1.2928908
1.5386392 1.0538734 1.290871
3.4845803 1.0643102 1.2437776
3.5228243 1.0487826 1.2125618
3.6523299 1.0374744 1.2065496
1.3782849 1.1865485 1.2960616
1.4308951 1.1454837 1.2937167
1.5387083 1.1555125 1.2916397
3.4845977 1.1522961 1.2479689
3.5166626 1.1471071 1.2027466
3.6502337 1.1696196 1.2108229
1.3981942 1.2444271 1.2911959
1.432693 1.2524732 1.2924635
1.5382718 1.2583452 1.2907443
3.4849029 1.2523528 1.2613795
3.5223784 1.2516756 1.2084903
3.6444328 1.2623874 1.2057682
1.4401426 1.3567015 1.2904568
1.5435201 1.3604937 1.2886196
3.4839752 1.373261 1.2620289
3.5237012 1.3536133 1.2142253
3.6343861 1.3449152 1.2187698
1.4456865 1.4467889 1.2946328
1.5535245 1.452853 1.2884424
3.4846957 1.4678501 1.257233
3.5326757 1.448895 1.2114534
3.6182346 1.4486164 1.2113853
1.4193966 1.5638731 1.293591
1.5398897 1.5588189 1.2914995
3.4842851 1.5697713 1.2583581
3.5216773 1.5551724 1.2163565
3.6209555 1.5514283 1.2099096
1.4572471 1.6457409 1.2904665
1.5388088 1.6633887 1.2928311
3.4854457 1.6737055 1.2567614
3.5299001 1.6483359 1.2277626
3.6195745 1.6478291 1.2132323
1.3936574 1.7455747 1.283286
1.4498951 1.757274 1.2867299
1.5468853 1.776026 1.2537769
1.6089519 1.7832227 1.2971166
1.7652404 1.7979978 1.2861278
1.8457092 1.7900295 1.293784
1.9400723 1.7952867 1.2874881
2.0260723 1.7921298 1.2863135
2.128572 1.7959471 1.2674599
2.2406156 1.7939003 1.2762856
2.3517151 1.7944057 1.2784379
2.4326034 1.7958964 1.2484684
2.5575306 1.7951483 1.2765489
2.6644461 1.7949412 1.2540705
2.7449436 1.7963265 1.2511939
2.8651943 1.7973061 1.2479239
2.9598553 1.795059 1.2367177
3.0741577 1.7976356 1.2449653
3.1533618 1.7971387 1.2446582
3.2437136 1.7967888 1.2404438
3.3238332 1.7985593 1.2572821
3.4772208 1.7692755 1.2279503
3.5201421 1.7553678 1.2082717
3.6414397 1.7563273 1.2307836
-0.61102599 1.8896775 1.2517453
-0.55919874 1.8953016 1.2586323
-0.43953452 1.8914901 1.2665431
1.2709589 1.8648537 1.297925
1.3855875 1.8344179 1.2791615
1.4780989 1.8110918 1.2293401
1.555999 1.8086562 1.2352588
1.6634171 1.8441463 1.2892412
1.7555915 1.8672807 1.2907028
1.8845147 1.8305669 1.2865704
1.9571632 1.8389578 1.2804434
2.0426352 1.8413448 1.2533656
2.1602445 1.8607816 1.2513132
2.252882 1.8384836 1.2497281
2.3282094 1.8188255 1.2707778
2.4304042 1.8249786 1.2667433
2.5364535 1.835307 1.2485044
2.6381934 1.8370696 1.2560663
2.7309351 1.8192425 1.2654382
2.8492184 1.8367717 1.232919
2.9470203 1.8328021 1.2440002
3.0495665 1.8271457 1.2370478
3.159431 1.8277467 1.229097
3.2538981 1.8461187 1.2287896
3.3536103 1.8282055 1.2257034
3.443505 1.8146048 1.2603122
3.5559969 1.8062704 1.2229135
3.6260271 1.8062296 1.2227128
-0.62465143 1.9015279 1.2824976
-0.55027407 1.927362 1.2677593
-0.45991069 1.9288862 1.2734066
-0.38987792 1.9286077 1.2266555
1.3811182 1.9713904 1.2529687
1.4719954 1.9507513 1.2237505
1.6564474 1.9385607 1.2791909
1.7644873 1.9635388 1.2870553
1.8685836 1.9590036 1.2856106
1.9677684 1.9497281 1.2746489
2.0676985 1.9614904 1.2506897
2.1627941 1.9543769 1.2419839
2.2326782 1.9728392 1.2411031
2.3334544 1.9526695 1.238628
2.4432647 1.9652842 1.2354708
2.5525846 1.9547793 1.2349072
2.6652508 1.975931 1.2309004
2.7696762 1.9586174 1.2262551
2.8505538 1.9609388 1.2194418
2.9646523 1.9629668 1.2162477
3.0602112 1.9617312 1.2120442
3.1473503 1.9652157 1.2040713
3.2711296 1.9531565 1.202356
3.3278027 1.9551179 1.2026701
3.4396706 1.953202 1.2073174
-0.41090116 2.0530503 1.2622863
1.3857244 2.0109944 1.2366297
1.6914322 2.0039718 1.2993627
1.7367518 2.0049767 1.2798994
1.8724298 2.0039201 1.2748698
1.9359552 2.0067229 1.279277
2.0660214 2.0111828 1.2811507
2.1316941 2.0033705 1.2760749
2.2256539 2.0011735 1.2483897
2.3679094 2.0099607 1.2574594
2.4594088 2.0087023 1.2517843
2.5901127 2.0043206 1.2476358
2.6223922 2.0010705 1.2640629
2.7263997 2.0059652 1.2444659
2.8444977 2.0036051 1.2402509
2.9501977 2.0043972 1.2316668
3.0361614 2.0033741 1.2433292
3.1551819 2.0046058 1.223402
3.2793365 2.0041113 1.2153933
3.3417654 2.0064344 1.2147579
3.42329 2.0036263 1.218605
3.172529 -2.1041906 1.3303803
3.2555149 -2.1323655 1.3295828
3.3745146 -2.120311 1.30119
0.17436109 -2.0031786 1.3980573
0.22576612 -2.0069427 1.3927956
0.37590581 -2.0032811 1.3811688
0.45052925 -2.0042202 1.3815392
0.53253114 -2.0039148 1.3720351
0.6364392 -2.0050526 1.3617361
0.73209703 -2.0051684 1.3558424
0.85219848 -2.0034351 1.3456619
0.94448483 -2.0027473 1.3381286
1.0701405 -2.0038066 1.3225249
1.1705167 -2.0084534 1.3243151
1.2629142 -2.0080845 1.3093293
1.3517479 -2.0060806 1.3064399
1.4074075 -2.0024142 1.3067731
1.8874302 -2.0114083 1.3783078
1.9286338 -2.0111351 1.3943903
2.0227351 -2.0219882 1.3837733
2.152849 -2.0228751 1.371135
2.259824 -2.020385 1.3692874
2.3616066 -2.0190814 1.3652409
2.4624698 -2.0284271 1.3605342
2.54054 -2.0254498 1.355845
2.6306524 -2.0403562 1.3510885
2.7395453 -2.0287614 1.3503675
2.8552983 -2.0647881 1.3477627
2.9585402 -2.0467598 1.3406745
3.0732117 -2.037909 1.3333223
3.1422043 -2.0402741 1.3296658
3.2390144 -2.0633731 1.3219162
3.337852 -2.0807025 1.3155819
3.4348671 -2.000443 1.3189458
0.23910171 -1.9592326 1.3948992
0.32211286 -1.9521052 1.3856407
0.42662641 -1.9511968 1.3789058
0.52618587 -1.9482119 1.372359
0.63651395 -1.9411837 1.3626505
0.71792191 -1.9567486 1.3538489
0.82550353 -1.944186 1.3481314
0.92395514 -1.9460601 1.3384786
1.0260441 -1.94907 1.3310382
1.13687 -1.9619523 1.3220303
1.2300005 -1.9450448 1.3143258
1.3233498 -1.9520556 1.3369392
1.4083226 -1.959422 1.3019621
1.7732453 -1.9287844 1.3974254
1.8381157 -1.9492673 1.3933398
1.9452139 -1.9584265 1.3842808
2.0535271 -1.9613864 1.3799756
2.1594462 -1.9581609 1.376501
2.2707458 -1.9426367 1.3705982
2.3583753 -1.9426675 1.3616853
2.4537501 -1.9626328 1.3600338
2.5440161 -1.9603069 1.3532186
2.6533959 -1.9255872 1.3634374
2.7478733 -1.9559175 1.352205
2.8627203 -1.9402595 1.3502607
2.961844 -1.9369742 1.360653
3.065892 -1.9578186 1.3497216
3.1639359 -1.9434011 1.3459542
3.2750411 -1.9517548 1.3415842
3.3575382 -1.9692454 1.321043
3.4487302 -1.9247802 1.3167104
0.2534638 -1.8560672 1.3951097
0.32448882 -1.8492863 1.3908451
0.41747162 -1.8457361 1.3831229
0.52184898 -1.8382695 1.3720632
0.62914664 -1.8476434 1.3609972
0.72299451 -1.834887 1.361926
0.8286469 -1.8344603 1.3623072
0.92844659 -1.8317258 1.3537667
1.0249995 -1.8313894 1.342814
1.1258473 -1.8372374 1.3299594
1.2272648 -1.8390995 1.3182838
1.3611504 -1.8306282 1.3490016
1.4739897 -1.8147492 1.3670101
1.5076125 -1.8188602 1.359203
1.6596718 -1.8122582 1.3137584
1.7413789 -1.8053794 1.33873
1.8597498 -1.8643106 1.3773189
1.9436508 -1.8522922 1.3935345
2.0527513 -1.8462042 1.3873546
2.1587026 -1.8761826 1.3764786
2.2674284 -1.8607597 1.3663404
2.3536661 -1.8722378 1.3836676
2.4426982 -1.8737506 1.3804046
2.5519986 -1.8781358 1.3814335
2.6352293 -1.8687829 1.3643264
2.7563496 -1.8869735 1.3594589
2.8367298 -1.8814561 1.3431896
2.967169 -1.8814915 1.3676621
3.0634003 -1.8859243 1.3754201
3.1472845 -1.8897152 1.352012
3.2261858 -1.8917621 1.3286192
3.3636489 -1.8926538 1.3326197
3.4164741 -1.812816 1.3284359
3.5399475 -1.848266 1.3092059
3.6133842 -1.8047111 1.3410881
0.47564045 -1.7948029 1.386761
0.56022257 -1.7948047 1.3792989
0.61625564 -1.7951143 1.3652698
0.75687486 -1.7957166 1.3594633
0.84434628 -1.7977359 1.3673885
0.92041051 -1.7924984 1.3560858
1.0354402 -1.7973177 1.3734181
1.1465309 -1.7920663 1.360356
1.2311208 -1.796778 1.3347929
1.3331515 -1.7903748 1.3536683
1.4473183 -1.7914017 1.3743356
1.535955 -1.7920153 1.350287
1.6831684 -1.7879087 1.3646793
1.7309999 -1.7840567 1.3121953
1.849961 -1.7819068 1.366768
1.9492738 -1.7863324 1.3667411
2.0415375 -1.7837296 1.3400669
2.1512575 -1.7818629 1.3587502
2.2367454 -1.7867355 1.3579552
2.3474672 -1.7835993 1.3755099
2.4344556 -1.7836182 1.3667598
2.5433195 -1.7837715 1.3668438
2.6737583 -1.7828115 1.3517088
2.7670238 -1.7813582 1.3714676
2.8525965 -1.7820654 1.3632278
2.9564667 -1.7798969 1.3506762
3.053134 -1.7797381 1.3772483
3.1518528 -1.7787317 1.3517355
3.2569194 -1.7807484 1.3458426
3.3773241 -1.7595835 1.3462193
3.4439001 -1.7190173 1.3173436
3.5408969 -1.7386684 1.3174162
3.6143401 -1.7352707 1.3152056
1.3977553 -1.650043 1.3612101
1.430017 -1.6583529 1.338168
1.5057909 -1.6484649 1.3049667
1.6057825 -1.667154 1.3017132
3.3981395 -1.6804721 1.3509054
3.473794 -1.6204114 1.3133636
3.5630529 -1.6386311 1.3172312
3.6287398 -1.6605756 1.3125229
1.3990228 -1.5503604 1.3426304
1.4324598 -1.5577329 1.343688
1.5179753 -1.5394964 1.3504186
3.4105964 -1.5777173 1.3368378
3.542428 -1.5249254 1.3136035
3.6090052 -1.5698783 1.3162129
1.3979117 -1.4612682 1.3231372
1.4578133 -1.4318011 1.37974
1.5580099 -1.4527049 1.3028977
3.4221334 -1.4708936 1.3328698
3.5423384 -1.4305403 1.3144281
3.6077194 -1.4379575 1.3132179
1.397244 -1.3520215 1.3402219
1.4455304 -1.3374174 1.377018
1.5600674 -1.3365664 1.3517079
3.436939 -1.3771915 1.3341852
3.5424142 -1.3305812 1.3160658
3.614841 -1.3551161 1.3198647
1.3971584 -1.2470838 1.3298688
1.4415395 -1.2458189 1.3730304
1.5291278 -1.240056 1.3535445
3.4511487 -1.2566892 1.3212183
3.5581713 -1.2267274 1.3140028
3.6181517 -1.2346501 1.3195673
1.3950948 -1.1455214 1.3400905
1.4514786 -1.1434362 1.3712556
1.5356454 -1.1480447 1.3813508
1.6083198 -1.1979405 1.3066276
3.4323516 -1.1630557 1.335537
3.5317051 -1.1171486 1.3151088
3.6187532 -1.1396778 1.3185449
1.3956221 -1.0532422 1.3384778
1.4265482 -1.0390154 1.3406879
1.5386763 -1.0499003 1.3783008
1.6045911 -1.0374751 1.3012464
3.4476054 -1.0680435 1.3284907
3.528677 -1.0244734 1.3274338
3.6181736 -1.0396121 1.3180337
1.3956389 -0.95484692 1.3339443
1.4659188 -0.97343564 1.3943532
1.5111148 -0.94424909 1.3928151
3.4509439 -0.95712125 1.3336816
3.5161595 -0.95814538 1.3391702
3.6160843 -0.96136731 1.3173637
1.3953662 -0.84812593 1.3371658
1.4616932 -0.85198611 1.3929421
1.5376643 -0.82503176 1.3920772
1.6007715 -0.83309519 1.3010101
3.4572952 -0.86016387 1.3282671
3.5338075 -0.86075282 1.3364971
3.61519 -0.8575843 1.331375
1.3929338 -0.74157929 1.3422973
1.4517711 -0.75243634 1.3940758
1.5096588 -0.73863173 1.3930161
3.4723349 -0.77399963 1.3428695
3.5506747 -0.77629757 1.338261
3.6166949 -0.78008652 1.3187014
1.3863746 -0.64327037 1.3732717
1.4360065 -0.66396934 1.3967692
1.5307362 -0.64052218 1.3920007
3.4643049 -0.65049314 1.3368192
3.5267072 -0.67314959 1.322211
3.633198 -0.65812451 1.3110119
1.3924034 -0.55632782 1.3723021
1.4617642 -0.55142522 1.3929077
1.5360519 -0.56352764 1.393369
3.4708467 -0.55258566 1.3241177
3.5385573 -0.56051219 1.3305806
3.6147175 -0.56107318 1.3496772
1.3838341 -0.45793971 1.3890898
1.4378631 -0.44601244 1.3938417
1.536549 -0.44550243 1.3941208
3.4806113 -0.45722178 1.3490609
3.5272717 -0.44663674 1.3323952
3.6205125 -0.46722823 1.3261831
1.3877339 -0.3622461 1.389264
1.4331528 -0.35630238 1.3951569
1.542299 -0.34261096 1.3911519
3.4822032 -0.36084095 1.3665708
3.5302563 -0.35953897 1.3188511
3.6312304 -0.36765221 1.3258922
1.3926945 -0.24607347 1.3876514
1.4557644 -0.25779435 1.3923506
1.5388539 -0.2359429 1.3918782
2.7174568 -0.20459095 1.359369
2.9827182 -0.20949188 1.3886338
3.0497248 -0.21682622 1.3561355
3.1533661 -0.22178285 1.3270191
3.2695177 -0.21033907 1.3325036
3.351182 -0.22262225 1.3169351
3.468868 -0.25291002 1.3199811
3.5445206 -0.2822853 1.347941
3.6426125 -0.29387718 1.3218288
0.72707933 -0.10048735 1.3644401
1.3954536 -0.1198259 1.3503706
1.4825722 -0.13484281 1.3696952
1.5611281 -0.12948063 1.337775
1.632846 -0.11109937 1.3946767
1.7335585 -0.11621976 1.3978364
1.8224442 -0.10463084 1.3890916
1.9207333 -0.12061366 1.3832217
2.0242128 -0.13304973 1.3753008
2.1371713 -0.13611582 1.3688229
2.2437654 -0.14593217 1.3669592
2.3331337 -0.1348535 1.3627888
2.4361582 -0.14759246 1.3567779
2.5507848 -0.14432691 1.3501878
2.6504829 -0.15791526 1.3482165
2.7525377 -0.15911877 1.3389442
2.8600302 -0.1672737 1.3376242
2.962266 -0.16038795 1.3328848
3.0707829 -0.16161646 1.3397639
3.1711934 -0.16034369 1.319878
3.2272589 -0.12227253 1.3140922
3.3520923 -0.12580813 1.3090129
3.4203024 -0.15246774 1.311429
0.5975703 -0.054679759 1.3596079
0.6416049 -0.048816223 1.3600212
0.71231079 -0.057246767 1.3563243
0.80873334 -0.051340759 1.3468428
0.91036916 -0.049262155 1.3436302
1.0411248 -0.044110324 1.3778948
1.1532445 -0.053545192 1.3781488
1.2513227 -0.045271799 1.3709435
1.3882735 -0.070653699 1.3894975
1.4147925 -0.076435477 1.3650844
1.5460033 -0.096574545 1.3272445
1.6653178 -0.077894852 1.3910061
1.7363739 -0.065696374 1.3862653
1.8543231 -0.036929745 1.3818082
1.9477776 -0.046366185 1.3780695
2.0473485 -0.05323099 1.3728957
2.1557004 -0.044540022 1.3670658
2.272198 -0.028394381 1.3661585
2.3541298 -0.049291614 1.3557161
2.4560099 -0.057921566 1.3464804
2.5817218 -0.054599471 1.3489767
2.6569021 -0.043905824 1.3483727
2.7484121 -0.059130415 1.3420138
2.8478851 -0.089285985 1.3352338
2.9460893 -0.039877132 1.3265221
3.0243196 -0.082007587 1.3322105
3.1450806 -0.071088448 1.3133011
3.2877147 -0.096963227 1.3081962
3.3234465 -0.058279693 1.3075316
3.4526186 -0.057773784 1.3046612
3.5110226 -0.015046477 1.3883984
-0.65720785 0.030495157 1.3303615
-0.51216495 0.048930783 1.385699
-0.49641147 0.055971101 1.3747475
0.63137662 0.04747913 1.3572407
0.7161299 0.052910347 1.3567457
0.81141144 0.054514773 1.3503525
0.90981656 0.055784218 1.3432654
1.0290396 0.074304879 1.3813038
1.1365404 0.04822509 1.3821415
1.2347463 0.061059833 1.3742748
1.3853047 0.044359855 1.3731577
1.4056705 0.048827585 1.3717006
1.774807 0.0073971851 1.3856995
1.8481097 0.026041579 1.3846507
1.9396397 0.032016531 1.3784648
2.0395241 0.011886545 1.3681197
2.2194839 0.0094241798 1.3717355
2.3864932 0.0075170547 1.3570899
3.5229607 0.029756635 1.3553438
-0.50343746 0.15599088 1.3626244
-0.49112254 0.1439493 1.3583949
0.8661502 0.11222468 1.3997048
1.1417081 0.1012993 1.3666773
1.2641051 0.10477906 1.3589747
1.3755047 0.11982771 1.3867652
1.4306141 0.185826 1.3899752
1.5602459 0.17483962 1.3016002
-0.48807776 0.20849331 1.3464581
1.3900218 0.25521025 1.3514102
1.4381641 0.24584715 1.3873762
1.5142884 0.28569567 1.394389
3.445848 0.2719442 1.3667293
3.565244 0.28304642 1.3476225
3.6367905 0.29198167 1.3488152
1.3924712 0.36171305 1.3583369
1.4266829 0.31755263 1.3896699
1.5348033 0.32285219 1.3877614
1.6145207 0.36990973 1.3391421
3.4385481 0.34980878 1.3641378
3.5457523 0.34570056 1.3469771
3.6247354 0.35847127 1.3465954
1.3951161 0.45364758 1.3387187
1.4468796 0.4414928 1.3964717
1.5416085 0.44133416 1.3776813
1.6195124 0.42502186 1.3757234
3.4330077 0.45538086 1.3639126
3.5415988 0.44818899 1.3482001
3.6133337 0.45186418 1.3456056
1.3892084 0.54535568 1.3455471
1.4614766 0.53879654 1.3910525
1.5564605 0.53808933 1.3714942
1.6084632 0.52284378 1.3774086
3.4916515 0.57444155 1.3416853
3.5128429 0.55688053 1.3655806
3.6149821 0.54271388 1.3482258
1.3982036 0.65796155 1.3509084
1.4530854 0.65333086 1.3799517
1.5426798 0.62986749 1.3706856
3.4882572 0.65034229 1.3510429
3.514327 0.65022993 1.3602686
3.6200466 0.65168071 1.3248589
1.3974247 0.75759959 1.3472995
1.4535286 0.75361073 1.3813512
1.5425273 0.73453671 1.3758868
1.6269972 0.74753714 1.3753448
3.4925041 0.76112759 1.3681533
3.5101318 0.74301314 1.3541403
3.6181829 0.76935077 1.3169224
1.3946309 0.86737221 1.3617812
1.4656203 0.83846056 1.3682648
1.537081 0.83775747 1.3709366
1.6059384 0.83980334 1.3722094
3.4913628 0.8491019 1.3589056
3.5115261 0.83194208 1.3695817
3.615191 0.8516115 1.3320665
1.39015 0.9729864 1.3652161
1.4527103 0.95083326 1.3712474
1.5141383 0.93397146 1.3714262
3.4945066 0.95925218 1.3688681
3.5619104 0.94999588 1.315442
3.6216216 0.96090281 1.3191574
1.384148 1.0562929 1.3645921
1.4749073 1.0438877 1.3793825
1.5509543 1.0409704 1.3560096
3.4904606 1.0651875 1.3569548
3.504117 1.0700397 1.383141
3.6123998 1.0397141 1.3232999
1.3915277 1.1577736 1.3554491
1.4612023 1.1638092 1.3630801
1.5631523 1.1497779 1.3578085
3.4922585 1.1554462 1.3541945
3.5093944 1.1772473 1.372982
3.626369 1.1365592 1.3252661
1.3930944 1.2734494 1.3558354
1.4674917 1.2358834 1.3666096
1.544955 1.2460252 1.3587627
3.4913223 1.2584193 1.3459109
3.5165322 1.2528598 1.3527257
3.622786 1.2600615 1.3219975
1.3900446 1.3760272 1.3530074
1.4652282 1.3413767 1.348377
1.5392351 1.3426536 1.3584648
3.4903493 1.3616714 1.3388426
3.532506 1.3664951 1.3523648
3.6185651 1.3366754 1.3259717
1.3883561 1.4692312 1.3426476
1.4683843 1.439324 1.3644727
1.5438052 1.45008 1.349669
3.4883261 1.4605594 1.3340945
3.536011 1.4733362 1.3514276
3.614836 1.4390202 1.3236307
1.3869319 1.5358891 1.3372712
1.4553308 1.5547388 1.3471584
1.5520614 1.5528898 1.3519859
3.4920838 1.5617137 1.3337958
3.5173497 1.561487 1.3629379
3.6163745 1.5564094 1.3319174
1.3913114 1.6855392 1.3457491
1.4543195 1.6457705 1.3474842
1.5419092 1.6417607 1.3567089
3.4907382 1.6565115 1.3366849
3.5615501 1.6442401 1.3158897
3.6209636 1.6667755 1.3284838
0.37902039 1.7985108 1.3850504
0.47121128 1.7932647 1.3793173
0.56260991 1.796797 1.3770258
0.65337944 1.7952756 1.3731462
0.7643919 1.7959344 1.3775363
0.85213637 1.7967889 1.3689361
0.94074219 1.7937829 1.3452936
1.0438709 1.7970787 1.3413649
1.1562061 1.7963517 1.3554039
1.2410198 1.7992322 1.3669522
1.380239 1.783025 1.3397965
1.4802777 1.7349203 1.3416222
1.5570074 1.76404 1.3314353
1.6318303 1.795838 1.3314857
1.7482655 1.7986077 1.3576992
1.8263317 1.7966473 1.3490107
1.9560386 1.7967812 1.3197372
2.0662966 1.7953355 1.3288763
2.170785 1.79386 1.3720117
2.2646585 1.7943187 1.3664671
2.3619299 1.7948747 1.3443244
2.4576659 1.7954726 1.3330932
2.5446267 1.7980232 1.3536462
2.6477575 1.7959614 1.3728786
2.7418566 1.7956117 1.3570682
2.8415284 1.7972307 1.358367
2.9311023 1.7977157 1.339877
3.0546496 1.7973444 1.3478423
3.1456597 1.7987731 1.3411689
3.2354422 1.7988124 1.3666403
3.3571496 1.7970272 1.3339169
3.483839 1.7622578 1.348672
3.5167437 1.7478532 1.3718579
3.6100445 1.7546958 1.3428478
-0.57907271 1.8947195 1.3717012
-0.45128405 1.8923029 1.3486037
-0.39900196 1.8895676 1.361944
0.26014939 1.8431185 1.3965578
0.35246673 1.8490568 1.3848649
0.44427651 1.8775361 1.3803757
0.55942428 1.8760195 1.3763366
0.67111599 1.8328487 1.3869696
0.77244574 1.82976 1.3757772
0.8702758 1.8471298 1.3650799
0.97507495 1.8252714 1.3568237
1.0728351 1.8343501 1.3463593
1.1753955 1.8415351 1.3860414
1.27073 1.8279297 1.3838546
1.3602033 1.8531417 1.3717179
1.4226387 1.8169367 1.3531852
1.5241884 1.8118094 1.3265215
1.642053 1.8320093 1.3268577
1.7358097 1.8124585 1.3327575
1.8192694 1.8108935 1.387326
1.9385566 1.8114334 1.3686067
2.0157743 1.8069476 1.3322306
2.1421452 1.8109921 1.3268194
2.2242951 1.8090208 1.3904195
2.3468943 1.8104403 1.3584332
2.4684408 1.8090248 1.3491677
2.5341487 1.8153367 1.3687789
2.6628501 1.8136897 1.3549856
2.7506323 1.8124321 1.3571844
2.8609605 1.81503 1.3512486
2.9521906 1.8142706 1.3523369
3.0355675 1.8130918 1.3704166
3.1440892 1.8152596 1.3532782
3.2615354 1.8151873 1.3509145
3.3555064 1.8154013 1.3425601
3.4488742 1.813386 1.3443788
3.5364082 1.8079484 1.3470227
3.6149216 1.8042126 1.3245625
-0.60317469 1.9009802 1.3217378
-0.5354929 1.927897 1.3718318
-0.44571948 1.9271002 1.362577
-0.39665118 1.9638573 1.3566813
-0.010915637 1.9997587 1.3994716
0.02318877 1.9106258 1.3995934
0.14014189 1.9676732 1.3950952
0.24605951 1.9536719 1.3905966
0.34938109 1.9638546 1.3835744
0.46245605 1.9501541 1.3725418
0.55146372 1.9506893 1.3720838
0.64252287 1.961998 1.3653169
0.75007522 1.9505343 1.3598958
0.84829926 1.9602563 1.3523698
0.94640344 1.9602703 1.3483871
1.0803784 1.9742522 1.3826104
1.1560692 1.9539695 1.3868009
1.2505327 1.9559344 1.3753592
1.3532374 1.9586099 1.3605142
1.4302422 1.9502087 1.3680512
1.6652367 1.9515328 1.3043311
1.7454762 1.9553601 1.3010277
1.8505557 1.9576093 1.3204207
1.971043 1.9535472 1.3322184
2.0519466 1.9516976 1.3283801
2.1742535 1.9519504 1.3298571
2.2524891 1.9422612 1.3310987
2.3525739 1.9496999 1.3281367
2.4449053 1.9431893 1.323514
2.552937 1.9505394 1.3238761
2.6619115 1.9512204 1.326328
2.7645683 1.9461267 1.3239815
2.8627958 1.9552522 1.3228486
2.9672773 1.9511794 1.3228558
3.053787 1.9534678 1.3243021
3.1530833 1.9521384 1.322247
3.2541275 1.9456518 1.3216751
3.3530169 1.959309 1.3193365
3.424345 1.9409075 1.3224442
-0.40885773 2.0448043 1.3539619
-0.3868584 2.0304852 1.3481872
0.041674361 2.0086763 1.3994904
0.17747033 2.0170963 1.392267
0.24402022 2.0091596 1.3982644
0.39608949 2.0018208 1.3786869
0.43928385 2.0081344 1.384362
0.54418051 2.0072012 1.3639234
0.63033605 2.0027347 1.3635237
0.75475669 2.00319 1.3543403
0.8406564 2.0050204 1.3522719
0.92481232 2.0040116 1.3438581
1.0727478 2.0059495 1.3371749
1.1517942 2.0109453 1.3591926
1.2668545 2.0066583 1.3515315
1.335247 2.0150418 1.3190082
1.6773525 2.0000572 1.3058126
1.7082562 2.0050845 1.3055203
1.8298571 2.0026875 1.3034575
2.0548096 2.0035503 1.332256
2.1580107 2.0085747 1.3347607
2.2941046 2.0029848 1.3257209
2.4449093 2.0040631 1.3214781
2.5293097 2.003603 1.3279855
2.6523793 2.0040565 1.3496866
2.7475219 2.0027883 1.3310878
2.8289227 2.0040383 1.3195926
2.9647975 2.002326 1.3343675
3.0469468 2.0047379 1.336385
3.1347611 2.0033896 1.3317682
3.227582 2.0022402 1.3263556
3.3743846 2.006135 1.3251301
3.4211099 2.0067337 1.3170751
0.17705727 -2.0146928 1.4017968
1.6138133 -2.0038133 1.4086611
1.7563311 -2.0056567 1.4051309
0.38879913 -1.9509532 1.4938719
0.45348334 -1.9218217 1.4896604
0.56365418 -1.9468839 1.489603
0.63592952 -1.9278145 1.4820408
0.74633271 -1.9541634 1.4760938
0.83075064 -1.9473487 1.472989
0.94193816 -1.9483125 1.465753
1.0717561 -1.9332762 1.4549479
1.1510355 -1.9616971 1.4521852
