# .PCD v0.7 - Point Cloud Data file format
VERSION 0.7
FIELDS x y z
SIZE 4 4 4
TYPE F F F
COUNT 1 1 1
WIDTH 1432
HEIGHT 1
VIEWPOINT 0 0 0 1 0 0 0
POINTS 1432
DATA ascii
1.3116102 0.84864414 -0.45034146
3.3606055 0.84757257 -0.45868784
3.4451082 0.84741062 -0.44484484
3.5288734 0.86291409 -0.46375751
-0.63296843 0.95461392 -0.42226371
-0.58381677 0.95295691 -0.43921965
1.1983393 0.99808705 -0.43448702
1.2326338 0.9722321 -0.42651653
1.3124509 0.94915807 -0.45113367
3.3728073 0.96306497 -0.46644482
3.4481475 0.92563367 -0.4618268
3.5171969 0.93761146 -0.43415684
-0.63026482 1.0447401 -0.42394292
-0.58371663 1.0463178 -0.45100567
1.199837 1.0063194 -0.45300201
1.2087736 1.0607822 -0.41033399
1.3124608 1.0476596 -0.45127714
3.3603864 1.0625889 -0.4662098
3.449137 1.0528564 -0.45494634
3.5252774 1.0285776 -0.46598148
-0.63253045 1.1517287 -0.42322168
-0.58505541 1.1442651 -0.44817805
1.2053015 1.1406131 -0.41821945
1.3123326 1.1475227 -0.44941524
3.3616016 1.160859 -0.46875936
3.4271221 1.1518043 -0.45437542
3.526118 1.149403 -0.46535173
-0.63137376 1.2487445 -0.42134356
-0.58396864 1.2458618 -0.44810238
1.2185893 1.2620062 -0.41536781
1.3131853 1.2506373 -0.45283431
3.3653326 1.2555559 -0.46696591
3.4668834 1.2596217 -0.46244287
3.5180359 1.2855548 -0.44865036
-0.6306501 1.3549274 -0.42453444
-0.58507317 1.3486063 -0.4526791
1.2066206 1.339849 -0.41492969
1.3111466 1.3493543 -0.45016253
3.3649163 1.3571084 -0.46852875
3.4491079 1.3766168 -0.45243645
3.5234318 1.3650689 -0.45820108
-0.63152093 1.4540901 -0.4188759
-0.58483791 1.4476362 -0.45261097
1.2049075 1.4323171 -0.43397653
1.3113865 1.4504554 -0.44967043
3.3615084 1.4498289 -0.47219408
3.4640186 1.4745336 -0.45849273
3.5416043 1.4690652 -0.44996977
-0.63246036 1.550787 -0.41913369
-0.58582526 1.5432971 -0.4499172
1.20504 1.540347 -0.42209476
1.3110299 1.5527902 -0.45337155
3.3682802 1.5459915 -0.4799321
3.4574223 1.5633402 -0.45906359
3.5313246 1.5663296 -0.47054875
-0.63048798 1.6531525 -0.42782179
-0.58598739 1.6547296 -0.45074439
1.2051972 1.628942 -0.41822755
1.3239055 1.649786 -0.45246869
3.3656621 1.6543763 -0.47699949
3.4533272 1.6475958 -0.47403812
3.5090876 1.6723273 -0.45753801
-0.83566481 1.7970009 -0.47751373
-0.72928125 1.7977831 -0.46052036
-0.67239928 1.7948997 -0.46920949
-0.51462626 1.7934067 -0.44230524
-0.46611416 1.7929811 -0.43008724
-0.34849754 1.7969743 -0.42120743
-0.25410786 1.7943602 -0.41794005
-0.15120262 1.7937275 -0.4168936
-0.018085672 1.7920518 -0.41681677
0.073322728 1.794652 -0.41164851
0.15516198 1.7970083 -0.4182744
0.2470005 1.7945197 -0.4185459
0.33696502 1.7968144 -0.41374338
0.47481734 1.7949629 -0.41030157
0.53952587 1.7945582 -0.43241
0.64706433 1.7975881 -0.41740993
0.74370891 1.79839 -0.42352486
0.8498739 1.7948985 -0.42480391
0.93688488 1.7891461 -0.41679418
1.0359486 1.7862811 -0.41820508
1.1900182 1.7772679 -0.41328213
1.2078959 1.7473046 -0.44536582
1.3192352 1.7529535 -0.45072949
1.6469189 1.7969652 -0.41452575
1.740006 1.7971973 -0.44138974
1.8550429 1.7982618 -0.44560128
1.9604155 1.7962694 -0.42230368
2.033262 1.7974882 -0.44364586
2.162338 1.7972729 -0.42560279
2.2403355 1.796461 -0.42478564
2.3527217 1.7985802 -0.45880035
2.4579642 1.7986175 -0.45635349
2.5526865 1.7982622 -0.47698238
2.6303811 1.7988671 -0.42912966
2.7440081 1.7973359 -0.41995025
2.8723402 1.7976899 -0.46151251
2.943583 1.7993988 -0.45304492
3.0435758 1.7984061 -0.45136657
3.1195066 1.798456 -0.46906722
3.2163975 1.7989931 -0.45872587
3.3674769 1.7758617 -0.46161956
3.4642911 1.7776564 -0.46183053
3.5212924 1.7846525 -0.45057848
-0.83309042 1.8053139 -0.46264881
-0.75672126 1.804826 -0.45491874
-0.66837907 1.8487524 -0.44794372
-0.56623805 1.8477762 -0.41877186
-0.46458152 1.8051866 -0.41957006
-0.35809505 1.8072382 -0.42120972
-0.23017043 1.8064448 -0.42636397
-0.16075961 1.8028626 -0.41612846
-0.03985215 1.8070225 -0.41042224
0.072542526 1.8062118 -0.42053851
0.17110029 1.8092327 -0.40930969
0.25057235 1.8036538 -0.41470399
0.34293115 1.8091936 -0.42084193
0.46287367 1.8083006 -0.42184713
0.54731518 1.8125134 -0.43693155
0.66723943 1.8102976 -0.40740979
0.75144792 1.8053564 -0.41906917
0.87265003 1.8153597 -0.40502581
0.95066476 1.8128309 -0.40924001
1.0475308 1.8105539 -0.41662621
1.1609373 1.8263342 -0.42663059
1.225258 1.8572023 -0.48764107
1.3150922 1.8035296 -0.44658235
1.5971034 1.8080798 -0.41003555
1.653827 1.8075411 -0.42455274
1.7579448 1.8098614 -0.44903353
1.8323878 1.8058057 -0.42428914
1.9648454 1.8200452 -0.42881036
2.0375385 1.8329529 -0.41293365
2.1668282 1.8302977 -0.42785856
2.2442057 1.8228469 -0.4244712
2.3433902 1.8410417 -0.42125499
2.4428761 1.815443 -0.43620497
2.5458708 1.8327774 -0.43345693
2.6663265 1.8156688 -0.4572328
2.7613125 1.8193272 -0.46229711
2.8492911 1.8192139 -0.45963183
2.9548728 1.814109 -0.46476161
3.0571129 1.8190376 -0.45889342
3.1572309 1.8074346 -0.49020028
3.2210894 1.822222 -0.48264039
3.342675 1.8419795 -0.45277038
3.4732161 1.8080664 -0.43724129
3.5346978 1.8044238 -0.42055792
-0.64067751 1.9684662 -0.46118465
-0.53754663 1.960701 -0.42701596
-0.4752354 1.9940062 -0.4435007
1.1964898 1.9496168 -0.49290377
1.2068782 1.9697816 -0.47966009
2.0114305 1.936007 -0.40241
2.1297536 1.9522893 -0.41378123
2.2601354 1.9353068 -0.40252644
2.3861506 1.9568131 -0.41361186
2.4702868 1.9451159 -0.41367507
2.5520978 1.9577849 -0.42045999
2.6294565 1.9546442 -0.42439392
2.7704005 1.9460526 -0.4278726
2.8439779 1.9564215 -0.43184471
2.9471738 1.9508538 -0.43554026
3.0646329 1.9429755 -0.44333681
3.1596305 1.9551367 -0.45549276
3.2482672 1.9531032 -0.4406186
3.3438842 1.9551016 -0.45168161
-0.65404391 2.0087912 -0.46059281
-0.54645026 2.0749984 -0.4369213
-0.45315397 2.0845723 -0.45629129
-0.36590663 2.0877533 -0.48419383
2.1274252 2.0062776 -0.41461694
2.6941018 2.0083032 -0.44218647
2.8967338 2.0075481 -0.44262159
-0.53173327 2.1097186 -0.46218601
-0.44636983 2.1285791 -0.46092594
-0.34247163 2.1327026 -0.47241199
-0.32318217 2.223357 -0.46529144
-0.28079119 2.2323992 -0.46419561
2.940999 -2.3130307 -0.31151587
2.6551425 -2.252413 -0.34649676
2.7637434 -2.2605555 -0.32531917
2.8668115 -2.2508328 -0.34918132
2.9383368 -2.2419727 -0.30839831
3.1274352 -2.2100551 -0.31328946
2.2771261 -2.1207116 -0.36819249
2.3322227 -2.1363945 -0.35129067
2.4679203 -2.1575959 -0.37009194
2.5509188 -2.1790686 -0.35684189
2.666862 -2.1830163 -0.34506193
2.7289169 -2.1854379 -0.33368662
2.8572364 -2.1565232 -0.34586716
2.9108205 -2.1364808 -0.35520703
3.036057 -2.1386478 -0.34082121
3.1317039 -2.1691012 -0.31758612
-0.42886797 -2.0048771 -0.34103334
-0.21356606 -2.0039854 -0.3358998
-0.18664092 -2.0067947 -0.34084836
0.0058772862 -2.0029035 -0.33880401
0.23228979 -2.0070138 -0.32091653
0.44866258 -2.0011957 -0.33802491
0.62249386 -2.0044045 -0.32496411
0.76097095 -2.0054784 -0.32076785
0.88776076 -2.0016704 -0.31267345
0.95109499 -2.0049019 -0.33497131
1.0624986 -2.0083284 -0.33528373
1.1175319 -2.0048976 -0.32542577
1.2641513 -2.0057893 -0.33422083
1.3092059 -2.0026946 -0.32527003
1.5779372 -2.0077763 -0.36540574
1.6426277 -2.0058584 -0.3380056
1.7464278 -2.0048957 -0.32790589
1.8731455 -2.0127823 -0.34737471
1.9565384 -2.036531 -0.33232206
2.0428483 -2.0519202 -0.33457646
2.1479685 -2.0721006 -0.35881159
2.2273347 -2.0700011 -0.35900265
2.3217363 -2.0500407 -0.35077524
2.4657204 -2.0683873 -0.34689546
2.550395 -2.0872984 -0.32739967
2.6519957 -2.0745621 -0.33955294
2.7234952 -2.0884161 -0.33971468
2.8455555 -2.0885429 -0.36473849
2.9274316 -2.0528924 -0.35692543
3.016082 -2.029319 -0.34794629
-0.63900149 -1.9508336 -0.38901055
-0.51030862 -1.9413625 -0.34132922
-0.44050694 -1.947682 -0.32732227
-0.32200184 -1.9436159 -0.33065149
-0.22527228 -1.9438177 -0.32737553
-0.11515711 -1.9511085 -0.33064312
-0.043659121 -1.9468895 -0.34096679
0.066600643 -1.9517555 -0.32919863
0.19255912 -1.9458802 -0.31740883
0.25956729 -1.9476302 -0.30615771
0.37330091 -1.9502652 -0.30935141
0.48456419 -1.9421698 -0.31408525
0.54598194 -1.9514678 -0.30560845
0.63082892 -1.9513524 -0.30599684
0.77280557 -1.9377083 -0.30523458
0.87262928 -1.9386159 -0.30448845
0.97336084 -1.9658327 -0.3051509
1.0488122 -1.9485809 -0.3141712
1.1656969 -1.9532893 -0.32892972
1.2238282 -1.945169 -0.32272595
1.3207632 -1.9363695 -0.32616487
1.4859353 -1.9405577 -0.37165797
1.5486522 -1.9131465 -0.35579696
1.6465168 -1.9316014 -0.37190351
1.7435821 -1.9704496 -0.37830412
1.8376676 -1.9627491 -0.33683491
1.9417902 -1.9793104 -0.33075112
2.0337293 -1.9837334 -0.32968271
2.1572006 -1.9778695 -0.3586925
2.2429848 -1.9655893 -0.37007165
2.3449018 -1.947016 -0.3611539
2.4335051 -1.9407989 -0.37237668
2.5361209 -1.9558699 -0.37480307
2.6380887 -1.9466949 -0.37381756
2.7495332 -1.9474994 -0.37172574
2.8306205 -1.9558423 -0.35567421
2.9567041 -1.9347863 -0.35577816
3.0117521 -1.9195695 -0.34911346
3.1560421 -1.9431306 -0.33459049
3.2319498 -1.9174546 -0.37005997
3.3740897 -1.936951 -0.3452934
3.4222226 -1.9428635 -0.3339422
-0.81076336 -1.8087506 -0.3544232
-0.75110626 -1.8071449 -0.37596622
-0.65340924 -1.8179994 -0.34132886
-0.55952591 -1.8088083 -0.36067882
-0.44268742 -1.8080398 -0.36444631
-0.34827158 -1.8072087 -0.36353135
-0.23656619 -1.80802 -0.34661034
-0.13249069 -1.8102109 -0.33540007
-0.014288689 -1.8022785 -0.35751963
0.026404347 -1.8044314 -0.36002117
0.1261826 -1.8033733 -0.33426768
0.21703316 -1.8029733 -0.33164477
0.31850886 -1.8023485 -0.36931208
0.44431087 -1.8051012 -0.32598141
0.55173606 -1.8024529 -0.33487189
0.66533738 -1.8105993 -0.36072293
0.76935863 -1.8083137 -0.34203473
0.86855644 -1.8123326 -0.35264859
0.96269572 -1.8099461 -0.34429482
1.0720664 -1.8099855 -0.37694037
1.1335075 -1.8236177 -0.36393243
1.2191813 -1.8483415 -0.33589724
1.3767055 -1.8646007 -0.31864735
1.451365 -1.8917909 -0.33480966
1.5289652 -1.8914381 -0.34442934
1.6319987 -1.8558091 -0.36815581
1.7639029 -1.8673062 -0.33086765
1.8710753 -1.8767338 -0.33428669
1.9498274 -1.8821366 -0.36089855
2.045836 -1.8860722 -0.36690956
2.126874 -1.8621063 -0.36315459
2.2242436 -1.8677306 -0.36966753
2.3392124 -1.8454508 -0.36362293
2.4529634 -1.8440706 -0.38142681
2.5273783 -1.8218553 -0.34662762
2.6498637 -1.8420775 -0.36516917
2.7538021 -1.8264704 -0.36583251
2.8475914 -1.8359504 -0.35276693
2.9840703 -1.8285141 -0.35962734
3.0126653 -1.8190446 -0.34585583
3.1750145 -1.852143 -0.32618308
3.2263584 -1.8266267 -0.33891153
3.3689697 -1.8467131 -0.36213955
3.4544652 -1.8169608 -0.33167809
3.540746 -1.8002348 -0.31346136
-0.81458449 -1.7946782 -0.37979633
-0.74182367 -1.7929883 -0.36994818
-0.64609146 -1.7645367 -0.34954634
-0.57579851 -1.7970489 -0.35496008
-0.44916043 -1.7967205 -0.32323024
-0.34748495 -1.7978145 -0.35395923
-0.2270484 -1.7945974 -0.34898257
-0.14421725 -1.7964109 -0.34130016
-0.01046905 -1.7978189 -0.34755385
0.059921164 -1.7891594 -0.36661291
0.14891785 -1.7901725 -0.36602709
0.20846149 -1.7921662 -0.33970469
0.36080173 -1.7906142 -0.33945352
0.45558524 -1.7924931 -0.35507095
0.54226327 -1.7747186 -0.3435562
0.6468249 -1.7761889 -0.35930419
0.76538652 -1.7717136 -0.36087224
0.86137909 -1.7861042 -0.34492868
0.93073744 -1.7495427 -0.35431162
1.0511633 -1.7623887 -0.36764702
1.1319126 -1.7504306 -0.38019037
1.2122256 -1.7712332 -0.37665451
1.3455244 -1.7739235 -0.31016654
1.4229705 -1.7686906 -0.33359152
1.5170938 -1.7898039 -0.38620037
1.6252154 -1.7896757 -0.38759077
1.7214684 -1.7918164 -0.37445211
1.8555598 -1.7909631 -0.37696967
1.9371877 -1.7863669 -0.38674074
2.0348048 -1.7872295 -0.38719451
2.1601033 -1.7904763 -0.38404688
2.2557216 -1.789299 -0.38340074
2.336575 -1.7897451 -0.36957633
2.4341931 -1.7891424 -0.37136447
2.5492473 -1.7904313 -0.36594027
2.6417143 -1.7923095 -0.37111712
2.7304211 -1.7930861 -0.36549494
2.8303862 -1.7899299 -0.36485079
2.9873848 -1.7751378 -0.33957195
3.0103569 -1.7172642 -0.35908428
3.1807511 -1.7643509 -0.32217592
3.2175128 -1.7287765 -0.33248952
3.384407 -1.7868025 -0.3497287
3.441705 -1.7905331 -0.35553041
3.5377178 -1.7921677 -0.33861208
3.6163213 -1.7961451 -0.32996914
-0.80573326 -1.6611094 -0.32769543
-0.71721673 -1.6483588 -0.32858759
-0.64374244 -1.6513209 -0.35449925
-0.57335532 -1.6421896 -0.36541933
0.95932722 -1.6380308 -0.33677685
1.0747063 -1.6730374 -0.36985543
1.1278058 -1.6412905 -0.37742519
1.2459372 -1.6443464 -0.35644782
1.3351781 -1.6396142 -0.33987147
1.4089192 -1.6508716 -0.3511368
1.5101634 -1.6305921 -0.34389931
3.0252991 -1.6380218 -0.33563936
3.1980171 -1.6458015 -0.32063884
3.2116318 -1.6485045 -0.33052307
3.3762636 -1.6285211 -0.35947382
3.4344361 -1.6506532 -0.37082276
3.5392985 -1.6653786 -0.3612721
-0.75615513 -1.5466523 -0.32823342
-0.64509237 -1.5517658 -0.35329714
-0.57611996 -1.5329387 -0.36458007
0.97282571 -1.5452447 -0.34098184
1.0868106 -1.5429606 -0.36802512
1.1238102 -1.552935 -0.36738896
1.2451643 -1.530095 -0.34634313
1.3458951 -1.5430212 -0.33806479
1.4071665 -1.5451456 -0.34734565
1.5130395 -1.517327 -0.34533679
3.0552206 -1.5281082 -0.33637235
3.1550391 -1.5475116 -0.30978784
3.2073526 -1.5451884 -0.3253192
3.3871484 -1.5532348 -0.36398214
3.4472969 -1.5446932 -0.35382605
3.5377779 -1.562611 -0.35808027
-0.81287944 -1.4727257 -0.34410104
-0.74103361 -1.4547533 -0.32187513
-0.63446355 -1.4536469 -0.31076449
-0.5772084 -1.4421632 -0.35897356
0.98004198 -1.4402621 -0.34226972
1.0488242 -1.4415417 -0.35816044
1.1403375 -1.4404335 -0.38412178
1.2379493 -1.4318036 -0.34639117
1.3398982 -1.4460752 -0.33458567
1.4044735 -1.4469365 -0.3439064
3.078367 -1.4308621 -0.34118375
3.1936297 -1.4611018 -0.31990123
3.2164497 -1.4551619 -0.32747361
3.3764138 -1.4521636 -0.36566961
3.475486 -1.4750879 -0.35852623
3.5211201 -1.4396375 -0.36802465
-0.80147618 -1.3471761 -0.33083025
-0.76553547 -1.3526368 -0.32715872
-0.63927633 -1.3548098 -0.31448212
-0.57532334 -1.3516257 -0.362762
0.99513829 -1.3178027 -0.34871805
1.014384 -1.340618 -0.33731741
1.1263404 -1.3456001 -0.37546003
1.235582 -1.3351909 -0.34240505
1.3179572 -1.351728 -0.32875481
1.4273823 -1.3653791 -0.34464616
1.5134836 -1.3754793 -0.34276608
3.0910282 -1.3726956 -0.34147775
3.1073532 -1.3150505 -0.33796293
3.2095685 -1.3569252 -0.32445416
3.371733 -1.3526765 -0.36498892
3.4251006 -1.3324647 -0.36650336
3.5347567 -1.356735 -0.35688132
-0.80262053 -1.242955 -0.32741782
-0.73863006 -1.253861 -0.32590503
-0.6441437 -1.259014 -0.31916746
-0.57486856 -1.2478731 -0.36604983
1.0111769 -1.2510653 -0.34500983
1.124331 -1.2724206 -0.37618887
1.2555132 -1.2479868 -0.33379802
1.312716 -1.2493768 -0.32547358
1.4223562 -1.2684507 -0.33393487
1.5177447 -1.2644423 -0.34382463
3.0917051 -1.2679243 -0.39193243
3.1251335 -1.227717 -0.33989462
3.2160766 -1.234655 -0.33196166
3.3746257 -1.2509487 -0.36246461
3.4543657 -1.2421854 -0.37194598
3.5330081 -1.2705677 -0.35029048
-0.75240225 -1.1482922 -0.32189691
-0.64162719 -1.1476353 -0.31455916
-0.57511961 -1.1453055 -0.36552832
1.0166663 -1.1395792 -0.35902381
1.1440799 -1.1552761 -0.3816129
1.2354616 -1.1529697 -0.33562157
1.302604 -1.1921539 -0.32320154
1.4408679 -1.170541 -0.33326638
1.5216706 -1.1458209 -0.34385309
3.1456237 -1.1418588 -0.34936696
3.223274 -1.1308237 -0.32770723
3.3790174 -1.1420693 -0.3628968
3.4637907 -1.1103742 -0.33083081
3.5256655 -1.1570897 -0.3687087
-0.80356747 -1.0579654 -0.32738286
-0.72190076 -1.0502572 -0.32531184
-0.64174366 -1.0543199 -0.31465542
-0.57604218 -1.0514746 -0.36399606
1.0373032 -1.0407531 -0.34987128
1.1464082 -1.0502454 -0.38878849
1.2265894 -1.0728101 -0.33775696
1.3449969 -1.068567 -0.32323885
1.4358621 -1.0519493 -0.31703329
1.5210263 -1.0322045 -0.34373742
3.1731331 -1.0308627 -0.34600878
3.2114487 -1.0424886 -0.33795542
3.3723156 -1.0552148 -0.36474866
3.4296207 -1.0441102 -0.3698833
3.541049 -1.0738626 -0.35934761
-0.80620372 -0.94723856 -0.34235021
-0.74854612 -0.94830483 -0.31985849
-0.64388382 -0.95329672 -0.31350204
-0.57535803 -0.9479652 -0.36182687
1.0379688 -0.97316045 -0.36009344
1.1616423 -0.94072235 -0.38381246
1.2266872 -0.99661857 -0.33277076
1.3275179 -0.94540995 -0.31004828
1.435616 -0.94685543 -0.30981755
1.5144634 -0.90962166 -0.34183887
3.1883867 -0.96710318 -0.35172483
3.2135551 -0.93698567 -0.34148464
3.3682213 -0.95063066 -0.36663547
3.4524715 -0.94233686 -0.36692837
3.5383289 -0.93985385 -0.34238794
-0.80099165 -0.85503089 -0.32922223
-0.74676436 -0.85176021 -0.32017896
-0.64472032 -0.85436523 -0.31560746
-0.57568455 -0.84414285 -0.36107725
1.0605528 -0.83375204 -0.35340798
1.1685144 -0.85024226 -0.38714972
1.2301842 -0.84651262 -0.34276882
1.3315902 -0.86896271 -0.30876917
1.4431791 -0.8688128 -0.31186825
3.2277725 -0.83226591 -0.34525946
3.3732767 -0.84380281 -0.36345959
3.465425 -0.8288905 -0.3803665
3.5341315 -0.85594571 -0.35677975
-0.80220455 -0.75141442 -0.310083
-0.7325629 -0.75446737 -0.32501924
-0.64733815 -0.74766886 -0.31283107
-0.57529658 -0.74758166 -0.35992792
1.0735534 -0.74178809 -0.37978986
1.1411852 -0.75188398 -0.37010098
1.2825844 -0.75022948 -0.34243584
1.3383412 -0.77490485 -0.31068462
1.439315 -0.75373763 -0.3044869
1.5136224 -0.75996941 -0.34244615
3.2467227 -0.74485618 -0.34599325
3.3816104 -0.74717176 -0.35265961
3.4195943 -0.76003605 -0.36621413
3.5345893 -0.77084172 -0.3705765
-0.80149066 -0.64299256 -0.33506292
-0.73925376 -0.6500228 -0.31965002
-0.64616346 -0.65205353 -0.31308883
-0.57625002 -0.6508677 -0.34705105
1.0941387 -0.66881043 -0.36984587
1.1035243 -0.64458287 -0.3600786
1.2786651 -0.65009284 -0.34943271
1.3614588 -0.65543503 -0.32762602
1.4560781 -0.66800368 -0.3065798
1.513798 -0.66123939 -0.34119502
3.0439484 -0.60392219 -0.34767708
3.1421022 -0.62800324 -0.3393206
3.2576394 -0.67878586 -0.37711245
3.3623161 -0.62507212 -0.36144495
3.4699948 -0.64952487 -0.36339733
3.5585454 -0.67521197 -0.37235653
-0.80562001 -0.54321426 -0.31139404
-0.73419452 -0.55620611 -0.32503217
-0.64526975 -0.54412985 -0.31274077
-0.58133036 -0.56557196 -0.33546978
1.1216115 -0.57109797 -0.36279416
1.284132 -0.55190301 -0.34423268
1.3882456 -0.5463503 -0.33194095
1.438549 -0.55654556 -0.32672939
1.5119593 -0.54194653 -0.34227228
2.9455996 -0.58082879 -0.33462405
3.3661232 -0.57156265 -0.36777198
3.4370794 -0.52600724 -0.3551349
3.5716076 -0.54010653 -0.35253564
-0.74791533 -0.45098129 -0.31998175
-0.64755386 -0.45182371 -0.31220731
1.149709 -0.45753673 -0.36846566
1.2747183 -0.45072952 -0.35724914
1.3641819 -0.45282117 -0.33040175
1.4559034 -0.44736791 -0.33260655
1.5195376 -0.49249154 -0.34036869
3.3732285 -0.46009266 -0.36347869
3.4398587 -0.42658311 -0.36584032
3.5651591 -0.43910211 -0.35054895
-0.80191565 -0.35568327 -0.34052363
-0.7430442 -0.34930834 -0.31743157
-0.64717555 -0.34565333 -0.31248373
1.1667542 -0.38680625 -0.34145546
1.2636304 -0.34551048 -0.35575059
1.3692635 -0.36364385 -0.32838795
1.4517394 -0.35333031 -0.33196437
1.5153446 -0.33751592 -0.34103698
3.3717709 -0.36352289 -0.37283006
3.4455211 -0.34231621 -0.36081362
3.5742488 -0.34048593 -0.35037446
3.6036518 -0.37760699 -0.35339409
-0.80067301 -0.25108624 -0.31919217
-0.73052257 -0.24904487 -0.32478854
-0.64712918 -0.25248736 -0.31213045
1.2734208 -0.24939567 -0.35759676
1.3847444 -0.24933857 -0.33433497
1.4409499 -0.2533997 -0.33017221
3.3602123 -0.29542232 -0.37541306
3.4159539 -0.27278709 -0.3776018
3.5755398 -0.28556466 -0.35001999
-0.80069834 -0.14531486 -0.34111419
-0.74314445 -0.15621144 -0.31846753
-0.64665067 -0.17678006 -0.31128135
-0.52576745 -0.10198148 -0.3225548
-0.47268468 -0.103677 -0.32813364
-0.34827104 -0.10201982 -0.33400542
-0.27607149 -0.10410114 -0.33753356
-0.17288859 -0.10193855 -0.32065827
-0.071026862 -0.10144308 -0.32336947
0.64342046 -0.10191372 -0.35832989
0.74754286 -0.1028203 -0.34861311
0.84241408 -0.10924345 -0.33721566
0.97287279 -0.10076012 -0.33419481
1.0876688 -0.10044152 -0.34256861
1.2749088 -0.1553047 -0.35537383
1.3886809 -0.15694681 -0.33408445
1.4434885 -0.16298865 -0.32930806
1.5040309 -0.15763506 -0.34218869
-0.62194777 -0.04715905 -0.32193631
-0.50616682 -0.045973442 -0.32233566
-0.4096756 -0.04743297 -0.32172349
-0.31073895 -0.049029678 -0.32178694
-0.20926443 -0.047193788 -0.32153654
-0.14006263 -0.026613642 -0.31841552
-0.030693516 -0.043370843 -0.31758982
0.066128731 -0.058783133 -0.3156012
0.48269293 -0.0091998056 -0.34134609
0.55811101 -0.011582784 -0.34066325
0.65068173 -0.0079777623 -0.33805448
0.73016322 -0.026746776 -0.34052068
0.83307344 -0.055034112 -0.3498112
0.98938167 -0.050528675 -0.33152106
1.0622329 -0.049524371 -0.32952401
1.1859304 -0.050053023 -0.33209395
1.2643929 -0.05086749 -0.31679457
1.3216581 -0.047515109 -0.32403105
-0.6511476 0.064565018 -0.31318924
-0.51014459 0.045153826 -0.32259524
-0.40864649 0.045217551 -0.3217954
-0.3098765 0.042405557 -0.32162389
-0.20929635 0.044827241 -0.32136476
-0.117397 0.045842905 -0.32049674
-0.028669223 0.044625994 -0.3171671
0.063200444 0.06662906 -0.32647291
0.14941961 0.07420937 -0.3383635
0.24054249 0.084027916 -0.3333188
0.32413712 0.073216163 -0.32482767
0.44400615 0.041876286 -0.31482148
0.52823377 0.023566365 -0.32520515
0.61114144 0.018733691 -0.34283939
0.78456497 0.063978419 -0.39236847
0.83442438 0.070449874 -0.38023788
0.98934948 0.049225349 -0.33173096
1.0627266 0.049977254 -0.32944375
1.1821858 0.049144108 -0.33159375
1.2602234 0.054871768 -0.31850404
1.3213438 0.04812732 -0.32479918
-0.80746353 0.15613225 -0.33425838
-0.74243087 0.15290128 -0.31822765
-0.65118372 0.17871121 -0.31092566
-0.13148421 0.18024534 -0.30201817
-0.051573679 0.16804676 -0.31333807
0.040283807 0.1441312 -0.31964782
0.14164796 0.11899145 -0.33558309
0.21775046 0.10600546 -0.33648783
0.49761549 0.10223117 -0.36265889
0.55788571 0.11094941 -0.36672968
0.63651907 0.11117783 -0.36848694
0.76850188 0.1235707 -0.38793361
0.81486762 0.13407373 -0.35709745
0.9188478 0.11067671 -0.34550187
1.0401909 0.10051005 -0.33124202
1.1427722 0.10012003 -0.33087811
1.274806 0.15492502 -0.35528558
1.3855159 0.15583517 -0.33556962
1.4460632 0.16498838 -0.3307806
1.5067621 0.1489034 -0.34260583
-0.80146945 0.2388466 -0.30788687
-0.73723567 0.24872297 -0.32451665
-0.64545864 0.2672022 -0.31846836
-0.26971793 0.20470703 -0.30057693
-0.17541206 0.20419693 -0.30003259
1.2673849 0.25436506 -0.36044359
1.3889916 0.24830878 -0.33367294
1.4411465 0.25176096 -0.3302488
3.3612072 0.29932338 -0.37529787
3.4165926 0.27205598 -0.37217706
3.5600045 0.28155056 -0.34851503
3.6049037 0.28913751 -0.35275275
-0.80672187 0.34363678 -0.35445395
-0.75369817 0.34419912 -0.35180628
-0.63364446 0.32801688 -0.34615996
1.2760248 0.34819198 -0.3567594
1.3716106 0.3622961 -0.32921496
1.4513329 0.3570309 -0.33259785
1.5129412 0.36022061 -0.34163764
3.368808 0.36886668 -0.37278557
3.455548 0.35796863 -0.36159354
3.5793486 0.34020987 -0.35079709
3.6100848 0.37909734 -0.35406861
-0.74772859 0.4507539 -0.31920809
-0.65158808 0.45739961 -0.31133813
1.2733748 0.4497692 -0.35701135
1.3627487 0.45431089 -0.33004236
1.4536942 0.44369897 -0.33274519
1.5176978 0.43114114 -0.34657967
3.3676672 0.4647004 -0.36524206
3.4417958 0.46411285 -0.35147893
3.5660951 0.43585306 -0.35059375
3.6051483 0.44594699 -0.35433972
-0.80571479 0.53967559 -0.30967152
-0.72844315 0.55233192 -0.3239634
-0.65025735 0.54345489 -0.30911961
-0.58302134 0.56241924 -0.3363134
1.2818135 0.5522961 -0.34442347
1.3877186 0.54976141 -0.33188063
1.438316 0.56316835 -0.32766727
1.5100228 0.55215693 -0.34265593
3.3638415 0.57725883 -0.38230437
3.4441164 0.5316751 -0.35389864
3.5807984 0.5407846 -0.35332158
-0.74882746 0.65008664 -0.3195405
-0.64856267 0.65560138 -0.31046927
-0.57853127 0.64980215 -0.34709656
1.2768223 0.65042353 -0.34924316
1.3598088 0.65725678 -0.32807019
1.455495 0.6799081 -0.30557519
1.5122055 0.65385711 -0.34390247
3.3760793 0.64853346 -0.35100564
3.4596183 0.64564604 -0.36109266
3.5599878 0.66130269 -0.37513125
3.6049542 0.67297417 -0.35772207
-0.80746979 0.74804699 -0.3095144
-0.73340005 0.74850583 -0.3249369
-0.64872479 0.74908996 -0.30938828
-0.57656705 0.75172353 -0.36218706
1.2817478 0.75059563 -0.34167531
1.3645755 0.7772243 -0.32582781
1.4535739 0.75080156 -0.30536222
1.5086876 0.7966184 -0.34129468
3.3843498 0.75094378 -0.37494269
3.4338737 0.75586385 -0.35216355
3.5398104 0.7618866 -0.36926103
-0.80492151 0.8477751 -0.32995522
-0.74886769 0.84168619 -0.32007945
-0.64897048 0.84602952 -0.30954161
-0.54943055 0.86104918 -0.30731076
1.2791998 0.87713933 -0.33111614
1.3499663 0.87429321 -0.3137475
1.4451644 0.8710025 -0.30786142
1.500055 0.81580234 -0.34158468
3.3749311 0.85763812 -0.36125126
3.4621754 0.83166182 -0.3793762
3.5512161 0.84451264 -0.36053529
-0.81585824 0.95189571 -0.32482982
-0.71655577 0.9430995 -0.32411167
-0.64808291 0.94958401 -0.30818242
-0.54540718 0.96433157 -0.32257324
-0.47128817 0.97066605 -0.3156085
1.2363764 0.96631646 -0.34030876
1.3446708 0.95809728 -0.31510735
1.43139 0.95794725 -0.31042913
1.5141034 0.93552709 -0.34446698
3.3661237 0.93215466 -0.35876733
3.4748831 0.9537431 -0.36737722
3.5429337 0.9616521 -0.33948469
-0.7545526 1.0428261 -0.31990722
-0.6531781 1.0431499 -0.31120944
-0.52491689 1.0190039 -0.31434199
-0.44266841 1.0601348 -0.31805131
1.2220457 1.0466492 -0.32629025
1.3540871 1.0766788 -0.31749293
1.4423121 1.0532665 -0.31350911
1.5106689 1.0530689 -0.34444192
3.3688259 1.0587187 -0.36264944
3.4501877 1.0485184 -0.35595465
3.5172572 1.0445739 -0.34927779
-0.81048816 1.1476601 -0.31035161
-0.73840141 1.142534 -0.3254956
-0.64669144 1.1594484 -0.31036469
-0.51616484 1.1526623 -0.3162573
-0.44624981 1.1456952 -0.31946135
1.2197663 1.1484596 -0.34917808
1.3449464 1.1685206 -0.3226662
1.428923 1.1510972 -0.32401362
1.5089515 1.1661593 -0.34435371
3.3760669 1.1459848 -0.36027479
3.4600749 1.1290648 -0.34665415
3.5503981 1.1394014 -0.36769429
-0.75030035 1.2395238 -0.3210994
-0.64733458 1.2510617 -0.31171441
-0.51477754 1.2304052 -0.31388432
-0.45212111 1.2584176 -0.31362808
-0.38560748 1.2570068 -0.32013559
1.2277367 1.2670071 -0.36704797
1.3633324 1.2662021 -0.32448575
1.4477457 1.2506582 -0.32627499
1.5068369 1.2876784 -0.34509236
3.3655601 1.2285304 -0.36260831
3.4829397 1.2433672 -0.35458624
3.5251701 1.2559166 -0.37782711
-0.81450093 1.3472366 -0.33814573
-0.74425858 1.3467594 -0.32102656
-0.64658344 1.3500255 -0.30678505
-0.57751817 1.3423988 -0.3660323
-0.44579366 1.3207057 -0.3224079
-0.38726568 1.3672438 -0.3267535
1.2342367 1.3505763 -0.36805728
1.3251495 1.3604844 -0.31841671
1.4241693 1.3717835 -0.33855253
1.5122012 1.3919649 -0.34458792
3.3780198 1.3551469 -0.35122812
3.4253464 1.3355608 -0.36849275
3.5558505 1.3713276 -0.35046595
-0.80488861 1.4666499 -0.33692169
-0.74965805 1.4421462 -0.32151687
-0.64927876 1.4544332 -0.30979556
-0.57783842 1.4388783 -0.3669863
-0.44417703 1.4354575 -0.31888402
1.2279297 1.4580688 -0.38543266
1.3384711 1.4635531 -0.31017223
1.4242703 1.4658766 -0.34110013
1.5004655 1.4156358 -0.34585303
3.3675723 1.4272816 -0.35892072
3.4660153 1.4528584 -0.3462345
3.5240767 1.4536763 -0.36967081
3.6187735 1.4766635 -0.35654902
-0.80253279 1.5601969 -0.33843189
-0.76734912 1.5388558 -0.32662117
-0.65597475 1.5568544 -0.34842259
-0.57763612 1.5387778 -0.36860409
-0.44039118 1.5726609 -0.31984979
-0.35922456 1.5361583 -0.33448711
1.236061 1.5538021 -0.36094999
1.3528668 1.5593323 -0.31097922
1.4101484 1.5738385 -0.31503528
1.5096471 1.5333977 -0.34692046
3.3839192 1.5711441 -0.36070627
3.4782152 1.5276189 -0.35478121
3.5443151 1.5429209 -0.35757783
3.6110125 1.5781549 -0.35950002
-0.80873942 1.6692973 -0.32666299
-0.7192679 1.6452813 -0.32512417
-0.65621907 1.6570278 -0.33821443
-0.57733893 1.6492511 -0.36485681
-0.43699509 1.6298065 -0.31485051
-0.33819747 1.6258974 -0.32926479
1.2301641 1.647235 -0.3875894
1.3623742 1.6522841 -0.31245637
1.4179866 1.6807852 -0.3117401
1.5050892 1.6665372 -0.34762046
3.3803663 1.6470361 -0.34729344
3.4407377 1.6418715 -0.36856878
3.5518739 1.6655991 -0.37217766
-0.81895572 1.7964773 -0.37287548
-0.74464822 1.7977138 -0.3668288
-0.65562439 1.7656118 -0.34607002
-0.56354946 1.7949377 -0.34068155
-0.44556668 1.7780681 -0.31853694
-0.34523863 1.741004 -0.3337931
-0.25456423 1.7961545 -0.35005766
-0.13183871 1.7973695 -0.33526126
-0.040345296 1.7959063 -0.33455753
0.066176482 1.7956163 -0.33001083
0.16747454 1.7962508 -0.32006729
0.26452082 1.7957857 -0.33161128
0.36529285 1.7949219 -0.33711964
0.46586955 1.7957768 -0.35058334
0.54019642 1.7988122 -0.33898336
0.64561462 1.7972658 -0.3449105
0.74640745 1.7952412 -0.36875144
0.8288452 1.7931391 -0.33081943
0.9509058 1.7865839 -0.34954691
1.0379305 1.7841952 -0.35543966
1.1320667 1.7857473 -0.37136942
1.2256135 1.7670503 -0.35466266
1.3735638 1.7709253 -0.31905693
1.4715197 1.7904997 -0.32381451
1.5136659 1.798753 -0.32027107
1.6318032 1.794516 -0.38072821
1.7615228 1.7970369 -0.37994963
1.8689653 1.798485 -0.39071575
1.9672146 1.7925359 -0.37724197
2.0644283 1.7973709 -0.37810028
2.1408939 1.7970883 -0.38716292
2.2239718 1.798241 -0.36213166
2.3231893 1.7983489 -0.3726922
2.4639452 1.7974342 -0.36730936
2.5432606 1.7964964 -0.37669569
2.6524308 1.7988557 -0.35862154
2.7904809 1.7978022 -0.35987401
2.8649683 1.7981362 -0.36481506
2.9457083 1.7988819 -0.34676901
3.0407419 1.7989771 -0.38827521
3.1756146 1.7990382 -0.35788491
3.2818828 1.7973047 -0.35541025
3.3816028 1.7662861 -0.34858549
3.4820738 1.7839346 -0.34892404
3.5237937 1.7433887 -0.34928197
-0.81998968 1.8053007 -0.37259823
-0.74413568 1.8073086 -0.34216976
-0.65013486 1.8259865 -0.35681066
-0.55075812 1.8081478 -0.34738913
-0.46795255 1.8056731 -0.33060056
-0.3645438 1.8048086 -0.34400174
-0.23421799 1.8058565 -0.3338899
-0.14660189 1.8095583 -0.32311955
-0.027478462 1.8589156 -0.31372857
0.044505812 1.8552318 -0.31662104
0.13370763 1.8797401 -0.32435161
0.25454849 1.8573607 -0.32861233
0.36132449 1.8773406 -0.31289837
0.44480908 1.8808351 -0.33253393
0.56763709 1.8784409 -0.34572527
0.65251315 1.8532917 -0.36124247
0.76038277 1.8457885 -0.36030155
0.84871989 1.8255485 -0.33132258
0.9537034 1.8143331 -0.3460747
1.0330309 1.8127288 -0.3416872
1.1222472 1.8119494 -0.36252823
1.2044159 1.808636 -0.36801726
1.3681598 1.8105264 -0.31255358
1.4919833 1.8108478 -0.31423345
1.5549512 1.8068273 -0.31803572
1.6616215 1.8481013 -0.3777082
1.7326046 1.8494239 -0.38032299
1.8756545 1.8328784 -0.38412586
1.9415493 1.8305427 -0.37710822
2.0735486 1.8258379 -0.38238937
2.1450841 1.8379159 -0.37657616
2.2170768 1.8305616 -0.38483095
2.3508518 1.8475676 -0.38580182
2.4532688 1.8378289 -0.37723452
2.5321813 1.8180935 -0.35495892
2.6688194 1.8315744 -0.38478369
2.7528901 1.8330815 -0.37661022
2.8285999 1.8134645 -0.36947685
2.9527328 1.8235785 -0.36411783
3.0320044 1.8344376 -0.34925023
3.1348593 1.8057415 -0.36560547
3.2441518 1.8186913 -0.34636655
3.3654747 1.8396477 -0.34915385
3.4453642 1.8068453 -0.35066772
3.5343294 1.8051592 -0.33504188
-0.63576978 1.9667131 -0.35025167
-0.54210937 1.9767544 -0.34613875
-0.42764246 1.9533106 -0.33221555
-0.35087889 1.9555309 -0.32739627
-0.22524099 1.9514967 -0.32374957
-0.1423478 1.9441788 -0.31409603
-0.031552725 1.9717534 -0.31194869
0.063303009 1.9693481 -0.32329324
0.16527234 1.9821458 -0.34146413
0.22872888 1.9748157 -0.34947723
0.35861766 1.9521848 -0.3392241
0.4579823 1.9258512 -0.34859416
0.52887881 1.925669 -0.33728504
0.67182165 1.9394751 -0.31102169
0.78453374 1.9480219 -0.30360168
0.87964642 1.9495854 -0.30987006
0.98489434 1.9432899 -0.3067793
1.0559108 1.9566077 -0.30906606
1.1591319 1.951838 -0.32392323
1.2301354 1.9432966 -0.30892825
1.3220491 1.935479 -0.32532167
1.5442563 1.9312057 -0.30737042
1.6119274 1.9836906 -0.32154667
1.7501085 1.9397616 -0.37695909
1.8426027 1.9776351 -0.3886067
1.9288852 1.9484043 -0.38070828
2.0524073 1.9536638 -0.37708187
2.1606336 1.9546791 -0.38514706
2.2453568 1.9569975 -0.38558531
2.3371487 1.9524052 -0.38762453
2.4287148 1.948688 -0.38616896
2.5680785 1.9691417 -0.37175089
2.6411202 1.9546702 -0.36424214
2.7505891 1.9481802 -0.38544321
2.8366406 1.9574953 -0.37584984
2.9483533 1.9417409 -0.36706299
3.0242701 1.9758596 -0.37425584
3.1492686 1.9620924 -0.34454125
3.2342815 1.9253384 -0.36741441
3.3614643 1.9525127 -0.35400477
3.4193377 1.9422104 -0.33386695
-0.65919757 2.0049219 -0.39496037
-0.55929983 2.0592017 -0.35174674
-0.43999273 2.082335 -0.37443167
-0.35329604 2.0918307 -0.39308494
-0.20316374 2.0544829 -0.31023464
-0.13306463 2.0632095 -0.31341624
-0.031401977 2.0509691 -0.3251397
0.041934788 2.0179396 -0.31393802
0.10335553 2.009038 -0.33921772
0.34158376 2.0047081 -0.33824176
0.56273174 2.0055802 -0.3175118
0.64018881 2.0035448 -0.31690547
0.8067916 2.0031097 -0.31725445
0.91065943 2.0036051 -0.33884567
1.0446808 2.0093675 -0.31414384
1.1507471 2.0095091 -0.33040345
1.2307789 2.0094635 -0.32727599
1.5655155 2.0068479 -0.38452083
1.6501592 2.0059662 -0.33872205
1.7827985 2.0025301 -0.34025848
1.9405825 2.0046461 -0.3693893
2.0310655 2.0045755 -0.32496384
2.2200654 2.0066066 -0.37448186
2.3239877 2.0035944 -0.37699035
2.468565 2.0025775 -0.30790868
2.6886587 2.0012476 -0.34803224
2.766355 2.003161 -0.35164651
3.3671896 2.0053277 -0.32343182
-0.52159965 2.1230228 -0.39758533
-0.43663323 2.1238813 -0.38451773
-0.33502218 2.1427224 -0.388208
-0.32927826 2.2268023 -0.39392453
-0.26933384 2.2602797 -0.39774266
2.7976136 -2.436429 -0.23910992
2.8438659 -2.4555707 -0.23306462
2.533741 -2.3445027 -0.25633875
2.7801392 -2.3436394 -0.25684291
2.8547411 -2.3591018 -0.24185818
2.9553041 -2.3318791 -0.24399099
3.0357938 -2.3322556 -0.25273964
2.1226349 -2.2355828 -0.2521553
2.3212614 -2.2522333 -0.24891524
2.4167137 -2.2174561 -0.27445716
2.5740426 -2.226095 -0.27622727
2.6493464 -2.2536418 -0.27514005
2.7408051 -2.2598929 -0.27352226
2.8737426 -2.2449739 -0.27305561
2.9451973 -2.2693167 -0.24993879
3.0583794 -2.2723992 -0.26411903
3.1400747 -2.2100039 -0.24253941
1.6262655 -2.1042404 -0.23094589
1.7779877 -2.1247528 -0.24070281
1.957366 -2.1470644 -0.24204022
2.1400886 -2.1701884 -0.25565198
2.2480037 -2.1014452 -0.2911779
2.3457584 -2.1477766 -0.2622478
2.4650383 -2.1658568 -0.28166205
2.5580273 -2.1810136 -0.27478662
2.6180813 -2.1798563 -0.28741533
2.8907371 -2.1534615 -0.28696823
2.9214485 -2.1534514 -0.27783164
3.0597105 -2.1876373 -0.26239014
3.1416419 -2.1740706 -0.23523092
3.2036128 -2.1489911 -0.29967311
-0.64043093 -2.0048714 -0.2579807
-0.56928045 -2.0050983 -0.23774628
-0.49024427 -2.0078976 -0.26252103
-0.36083341 -2.0097818 -0.23161614
-0.23658049 -2.0041585 -0.24877401
-0.15929189 -2.0062919 -0.22654125
-0.028173216 -2.0019603 -0.25309804
0.055137999 -2.0072107 -0.22708191
0.159695 -2.0032053 -0.25044602
0.25796139 -2.0081072 -0.23887864
0.33820313 -2.0020213 -0.23521662
0.47027886 -2.0048976 -0.25888839
0.51053965 -2.0086777 -0.28686875
0.70907456 -2.0084357 -0.28906789
0.83414775 -2.0022702 -0.25260854
1.0156311 -2.0005124 -0.21888202
1.147979 -2.0172753 -0.21763986
1.2529993 -2.0083852 -0.20735027
1.3624344 -2.0294299 -0.21736424
1.4843845 -2.0613825 -0.22577928
1.5390676 -2.0589368 -0.23166323
1.6436305 -2.0491116 -0.23262247
1.7827742 -2.0667279 -0.24652085
1.8343807 -2.0389197 -0.23862322
1.9679074 -2.044848 -0.25593096
2.047703 -2.0552571 -0.26537719
2.1599011 -2.082139 -0.27554065
2.2359991 -2.0717816 -0.28583986
2.3912189 -2.0736489 -0.28680116
2.4211187 -2.0671194 -0.29425907
2.9262085 -2.058588 -0.2916919
3.09168 -2.0800395 -0.27071482
3.1202672 -2.0250661 -0.27413774
-0.6164664 -1.9503384 -0.23875865
-0.56841803 -1.9397227 -0.21784151
-0.45395142 -1.9486287 -0.21394753
-0.35042468 -1.9484901 -0.21409717
-0.24375822 -1.9497011 -0.2142055
-0.13336234 -1.9496 -0.21897577
-0.045856077 -1.94811 -0.22453791
0.073446229 -1.9495924 -0.23659386
0.15149802 -1.9712355 -0.20742688
0.24255526 -1.9440327 -0.20964906
0.35016873 -1.9480526 -0.22475314
0.42885363 -1.9300435 -0.23352177
0.5613901 -1.9627932 -0.25255278
0.64180815 -1.9483014 -0.26174486
0.76928043 -1.9438362 -0.2389753
0.85015082 -1.9302642 -0.20551832
0.94834322 -1.9522551 -0.21766528
1.0359544 -1.9459801 -0.22430673
1.1632357 -1.9428217 -0.22713262
1.2712758 -1.9271917 -0.21729736
1.3499231 -1.9481913 -0.22061722
1.4605365 -1.9306194 -0.23835468
1.5516456 -1.9216151 -0.25705314
1.6627339 -1.9415334 -0.26927516
1.7456945 -1.966374 -0.2817426
1.8215437 -1.9843917 -0.26962245
1.9472675 -1.9815607 -0.26030269
2.0379519 -1.9841287 -0.26590824
2.1346474 -1.9753537 -0.28331357
2.2030909 -1.980006 -0.2925328
2.9550385 -1.9495118 -0.29504475
3.0975606 -1.9531512 -0.27109474
3.1399884 -1.9475005 -0.27625167
3.3821476 -1.9351245 -0.24945712
3.4147556 -1.9446328 -0.24791646
-0.8081544 -1.8102913 -0.22669163
-0.77686983 -1.8041722 -0.23117043
-0.61330944 -1.8091319 -0.2830826
-0.55095869 -1.8151885 -0.23955511
-0.4299503 -1.8131722 -0.26866838
-0.34901834 -1.8197516 -0.23166659
-0.24496146 -1.8240513 -0.24181455
-0.1517275 -1.8109477 -0.28087112
-0.045764688 -1.8123376 -0.25515166
0.044041764 -1.80325 -0.24969697
0.13664386 -1.806344 -0.22183171
0.23284364 -1.8223646 -0.25026903
0.33199453 -1.8093424 -0.27227196
0.45312816 -1.8156707 -0.229937
0.54783607 -1.8152866 -0.24585569
0.66280872 -1.8079106 -0.27809957
0.73414707 -1.8180876 -0.25068742
0.82935935 -1.8319061 -0.21838319
0.95069009 -1.8410944 -0.23047745
1.0647056 -1.8531524 -0.23510335
1.1614041 -1.840084 -0.23256615
1.2535357 -1.8536311 -0.24652259
1.3388544 -1.8708636 -0.26319405
1.4645953 -1.8936868 -0.25257999
1.529691 -1.8768413 -0.27062419
1.6251318 -1.8779795 -0.27839339
2.9781566 -1.835027 -0.29387999
3.000195 -1.8125331 -0.29314989
3.1358056 -1.8699598 -0.27583063
3.3840218 -1.8381025 -0.25212681
3.4703805 -1.8103862 -0.25103924
3.564919 -1.801301 -0.24584123
-0.81068838 -1.7811918 -0.26323512
-0.76057863 -1.7672014 -0.23117775
-0.62183237 -1.7686249 -0.26838696
-0.5317148 -1.7954767 -0.26558912
-0.4669849 -1.7964299 -0.26507875
-0.35490912 -1.7963545 -0.27233359
-0.25058347 -1.7944418 -0.2734248
-0.1731759 -1.7954569 -0.27139139
-0.039734714 -1.7979335 -0.26979548
0.05224311 -1.7912002 -0.2504634
0.11949328 -1.7876483 -0.26285586
0.25312471 -1.786626 -0.25743666
0.33587295 -1.7875013 -0.25746739
0.44882455 -1.7945505 -0.24554974
0.56923383 -1.7786461 -0.26367974
0.65750593 -1.7755827 -0.24874675
0.72449297 -1.7782472 -0.25810161
0.84650797 -1.7862855 -0.24019422
0.94914013 -1.7682632 -0.24120271
1.0629499 -1.7535083 -0.25694859
1.1556094 -1.7752355 -0.23231214
1.2338116 -1.7269151 -0.24196716
1.3195074 -1.740411 -0.24914595
1.4331281 -1.791584 -0.23278248
1.500012 -1.7959831 -0.22682302
3.0067241 -1.7260392 -0.29755443
3.14995 -1.7620186 -0.2774812
3.3821387 -1.7900704 -0.26719394
3.4415803 -1.7871087 -0.24443933
3.5495474 -1.7893305 -0.23718321
3.6204948 -1.7982092 -0.25819242
-0.8060925 -1.6975096 -0.25431693
-0.77509111 -1.6585366 -0.23621161
-0.625296 -1.6507483 -0.25935057
0.96204358 -1.6487986 -0.23660479
1.0847151 -1.6575036 -0.27155614
1.1350043 -1.6632744 -0.22377242
1.2525519 -1.6320194 -0.24133955
1.341079 -1.6314585 -0.27798247
1.4630337 -1.650421 -0.29981202
3.0670531 -1.6550171 -0.29425594
3.1628788 -1.656546 -0.27896816
-0.80709612 -1.5609806 -0.2539838
-0.7645157 -1.5588759 -0.23445271
-0.62468475 -1.5492206 -0.26575354
0.97899783 -1.5474341 -0.2475795
1.0946683 -1.5779655 -0.27390227
1.1331409 -1.5633774 -0.2054977
1.2277666 -1.5784132 -0.2460825
1.3165705 -1.5826311 -0.25530034
1.4197047 -1.5498335 -0.29828617
3.1758471 -1.5607517 -0.28049171
-0.81974113 -1.447482 -0.24858169
-0.75958264 -1.4727619 -0.21762103
-0.62677097 -1.4567502 -0.26688164
0.98846292 -1.4441035 -0.23540033
1.0397325 -1.4249363 -0.21923202
1.1503221 -1.4466562 -0.20672959
1.261541 -1.4519457 -0.2416032
1.3337677 -1.4255437 -0.25624883
1.4070151 -1.4682283 -0.29875261
3.1860127 -1.4552302 -0.28158176
-0.8257578 -1.3412794 -0.24916077
-0.75910717 -1.352618 -0.23278633
-0.62571567 -1.3503882 -0.25444689
1.0130584 -1.3341715 -0.24192634
1.1443217 -1.348695 -0.2069771
1.2216172 -1.3487284 -0.24132389
1.3157291 -1.3394589 -0.25079006
1.4617653 -1.3568021 -0.29992613
3.197546 -1.3521999 -0.2831904
3.2066817 -1.3291117 -0.28379399
-0.80746728 -1.2664855 -0.23154372
-0.76645374 -1.2423487 -0.23310125
-0.62689131 -1.2613368 -0.25215086
1.0292234 -1.2608016 -0.2464263
1.1539767 -1.2502635 -0.20891696
1.2381591 -1.2448217 -0.2273761
1.327258 -1.2340407 -0.25345013
1.4306267 -1.2440282 -0.29812866
3.1806774 -1.2239432 -0.29675108
3.2243311 -1.2567511 -0.28608453
-0.81973159 -1.1358213 -0.23854621
-0.76429844 -1.1437064 -0.23369834
-0.62739033 -1.1533259 -0.26227835
1.0635991 -1.1652625 -0.22096248
1.1667812 -1.1613138 -0.20702894
1.2095629 -1.1333827 -0.21177965
1.3331162 -1.1426797 -0.25087455
1.4384612 -1.1505488 -0.29711413
3.2236679 -1.1239004 -0.28583071
-0.80991435 -1.055892 -0.24955332
-0.7750181 -1.0403357 -0.23266047
-0.6301198 -1.0679352 -0.26850224
1.0547302 -1.0585558 -0.2297869
1.1611046 -1.0583923 -0.20780687
1.2255907 -1.0495663 -0.21664429
1.3207293 -1.0435925 -0.24966981
1.4334496 -1.0512087 -0.29680344
3.2317038 -1.0445197 -0.28670225
-0.80866241 -0.96204191 -0.23428521
-0.76408881 -0.94540393 -0.23274027
-0.62681454 -0.95959395 -0.23985958
1.0518105 -0.95733178 -0.26186976
1.1324606 -0.96364284 -0.20671716
1.2341632 -0.93934357 -0.20819083
1.3419657 -0.93276536 -0.25278407
1.4352329 -0.94681609 -0.29603273
3.2583396 -0.97752577 -0.29051131
-0.81288928 -0.85026652 -0.22401337
-0.76803696 -0.84573799 -0.2308898
-0.63473141 -0.849235 -0.25789073
1.0674099 -0.85389972 -0.24630262
1.1571698 -0.84246564 -0.20398858
1.2443115 -0.85625356 -0.20827894
1.3337615 -0.83624697 -0.25162995
1.4353995 -0.84561247 -0.29486817
-0.81743491 -0.74929971 -0.22148721
-0.76778853 -0.74914438 -0.23042844
-0.63618529 -0.7511493 -0.2645503
1.0793359 -0.75958991 -0.27734658
1.1635244 -0.73348761 -0.20516789
1.2583933 -0.76092637 -0.2108418
1.3292351 -0.77959299 -0.24149577
1.4331079 -0.74360418 -0.29383361
3.266737 -0.79734361 -0.29066649
-0.82071924 -0.65356624 -0.24100105
-0.76850694 -0.64638937 -0.22989328
-0.63495696 -0.65249944 -0.26916957
1.0927575 -0.6867522 -0.25079632
1.1187291 -0.63428378 -0.24031308
1.2374225 -0.6529097 -0.21252024
1.3133272 -0.64903289 -0.23585884
1.4382237 -0.66471648 -0.29645461
3.2815673 -0.62813526 -0.24305084
3.3304408 -0.67527962 -0.24365373
3.4067965 -0.69282925 -0.25586659
-0.8083148 -0.55243492 -0.2357455
-0.76953137 -0.55140615 -0.22923054
-0.63551813 -0.55367231 -0.24248984
1.140625 -0.56575149 -0.22338907
1.2253387 -0.55275732 -0.20778251
1.3162951 -0.52876765 -0.21817976
1.4476764 -0.55950642 -0.29304919
2.9609244 -0.58382428 -0.29053336
3.0535617 -0.59911108 -0.28875783
-0.80760837 -0.45615792 -0.23835251
-0.75403321 -0.44447607 -0.22794345
-0.63535351 -0.45018315 -0.24549294
1.1650927 -0.43393564 -0.23699084
1.2399917 -0.45555282 -0.21522915
1.3391949 -0.49596447 -0.20977056
-0.80513883 -0.34908232 -0.24688181
-0.77440119 -0.33167925 -0.24239901
-0.63732648 -0.34988499 -0.24825719
1.1635733 -0.39554584 -0.25921506
-0.8116011 -0.23937955 -0.23248416
-0.75126106 -0.21476877 -0.26031637
-0.63668633 -0.24880379 -0.25142947
-0.82041919 -0.15120685 -0.23505008
-0.73095417 -0.14411622 -0.25016919
-0.64109874 -0.16981442 -0.26204553
-0.52238202 -0.10149294 -0.23591784
-0.31563997 -0.10136081 -0.22143263
-0.20538855 -0.10188168 -0.26005608
-0.16223457 -0.10051547 -0.21136117
-0.042750541 -0.10057998 -0.2282781
0.069328658 -0.10080549 -0.22111621
0.15764718 -0.10062146 -0.21621759
0.24746284 -0.10116294 -0.25152233
0.3476555 -0.10086636 -0.24959026
0.44617987 -0.10066795 -0.26347703
0.65403312 -0.1023753 -0.24476327
0.72927874 -0.10584816 -0.25263202
0.85879833 -0.11095531 -0.25414702
-0.71681303 -0.076279573 -0.25705296
-0.67668629 -0.027050234 -0.25647348
-0.55760968 -0.047604825 -0.22867374
-0.46113172 -0.054194245 -0.21040183
-0.36815029 -0.049258955 -0.22023676
-0.27477968 -0.052337945 -0.20973317
-0.17019275 -0.044157069 -0.20613948
-0.076494411 -0.049013138 -0.21143353
0.034876201 -0.069476061 -0.20309518
0.18049151 -0.069205426 -0.23159488
0.27272427 -0.053093009 -0.24566947
0.34440255 -0.072758056 -0.2467453
0.48422891 -0.026078796 -0.25351667
0.56182289 -0.011600208 -0.25092182
0.67196608 -0.014904653 -0.26524901
0.74567795 -0.026254516 -0.25599629
0.81845576 -0.051534925 -0.2184978
0.90510446 -0.081498221 -0.25643301
1.261687 -0.04798311 -0.23003206
1.3132854 -0.048579708 -0.25248396
-0.70225477 0.015429814 -0.26737237
-0.67560434 0.071149878 -0.25281316
-0.55766499 0.04399427 -0.2288603
-0.45891723 0.045003545 -0.2131564
-0.33636409 0.046370529 -0.21106797
-0.26201123 0.044434518 -0.21446434
-0.16844475 0.049125139 -0.20565921
-0.079945788 0.045686711 -0.21227838
0.0611967 0.063402548 -0.24491441
0.15232772 0.07257472 -0.26324302
0.24015835 0.091800816 -0.27996099
0.34625486 0.070801049 -0.22868514
0.45103756 0.043856505 -0.22262478
0.53900558 0.021599621 -0.23705736
0.62079871 0.0098334495 -0.25284171
0.76709461 0.033150084 -0.21441174
0.83862603 0.050576001 -0.20814122
0.90213925 0.053587779 -0.24274838
1.266005 0.050229095 -0.23444265
1.3129375 0.047418293 -0.25274989
-0.81571567 0.15245542 -0.23944798
-0.77424103 0.15457688 -0.22684115
-0.6526649 0.16943406 -0.25024751
-0.32884067 0.18012303 -0.25039792
-0.25291198 0.16503823 -0.25175297
-0.15389736 0.17703223 -0.23051088
-0.037714925 0.1671771 -0.23131727
0.036793195 0.14611405 -0.25904095
0.13301934 0.12158452 -0.26783097
0.22797483 0.10384727 -0.27673054
0.34040657 0.10177132 -0.24192132
0.44050398 0.10271593 -0.25719145
0.56863523 0.10312707 -0.23250401
0.65619165 0.11276942 -0.2593866
0.75187993 0.11077772 -0.21204624
0.8202697 0.11552107 -0.21473019
0.90845728 0.11390574 -0.26620588
-0.81468749 0.24185941 -0.23163171
-0.77289265 0.24688947 -0.22794583
-0.61950028 0.26522267 -0.25118533
-0.52611637 0.27389568 -0.25856882
-0.44533658 0.26504788 -0.2681165
-0.35256505 0.24380478 -0.26070589
-0.25537017 0.22275305 -0.24809973
-0.15713167 0.20039654 -0.22244053
-0.8104738 0.33640319 -0.23294663
-0.77801979 0.34999144 -0.22728908
-0.63916802 0.35096449 -0.25080442
-0.59907061 0.3003431 -0.24371737
-0.81354129 0.45391464 -0.23687458
-0.76661015 0.44783688 -0.2271743
-0.6400339 0.45013031 -0.25238574
-0.81635076 0.55703264 -0.23054194
-0.77184451 0.55195647 -0.2272507
-0.63880467 0.56482714 -0.22531915
1.4453273 0.56370729 -0.2899965
-0.80680424 0.64990079 -0.25539306
-0.76469791 0.65190482 -0.22781439
-0.64060688 0.64985776 -0.26880437
-0.56732941 0.68081647 -0.20740023
1.3191254 0.67111623 -0.28936478
1.4346945 0.67100334 -0.2945472
-0.81998378 0.74661124 -0.23435234
-0.76547563 0.74776804 -0.22857285
-0.64159882 0.75005358 -0.26259589
-0.51179004 0.77137858 -0.21738969
-0.48018241 0.79573095 -0.22132716
1.3093734 0.76683044 -0.29509401
1.4197583 0.75176251 -0.29422727
-0.80598968 0.83888435 -0.23771143
-0.77938521 0.85299063 -0.2271685
-0.64100301 0.85039949 -0.25475764
-0.51309305 0.84364063 -0.24445301
-0.47034836 0.85897672 -0.24021685
1.3060579 0.85383362 -0.29846084
1.4214375 0.85146993 -0.29457369
-0.81532168 0.97652769 -0.23963387
-0.77374464 0.95000184 -0.22702864
-0.63941473 0.96422434 -0.23834389
-0.53292382 0.94635797 -0.25726497
-0.45371443 0.97282577 -0.2579211
1.2485375 0.9617039 -0.26770008
1.4239671 0.95188284 -0.29492527
-0.8057977 1.0420383 -0.24469948
-0.76010048 1.0427649 -0.2330222
-0.64333284 1.0596871 -0.27221677
-0.51237011 1.0389862 -0.26047099
-0.42991376 1.070091 -0.26228595
1.2450004 1.0546707 -0.25123212
1.3490149 1.0489074 -0.2960552
1.4394228 1.0518321 -0.29526556
-0.81118554 1.1427436 -0.23698026
-0.77641487 1.1529326 -0.22864038
-0.64003652 1.152474 -0.26530519
-0.5150665 1.1304636 -0.252662
-0.41933489 1.1624295 -0.26947269
-0.38763392 1.1602905 -0.26669028
1.2548358 1.1579907 -0.24614716
1.3588049 1.1567402 -0.27285627
1.4371539 1.1465421 -0.2961666
-0.810673 1.2466245 -0.23849888
-0.74787652 1.2490542 -0.22849125
-0.63476324 1.2517992 -0.2507256
-0.51470196 1.2521338 -0.25285333
-0.41591561 1.2679689 -0.27165353
-0.38538349 1.2688327 -0.26510388
1.2504798 1.267928 -0.26456964
1.3230245 1.2507079 -0.24973437
1.4233042 1.2502272 -0.29613423
-0.80720615 1.3588264 -0.26162648
-0.75431061 1.3513221 -0.22576678
-0.63601691 1.3482159 -0.24211405
-0.51193017 1.3364681 -0.26275048
-0.42718834 1.3351212 -0.26979676
-0.37349218 1.3735263 -0.26989067
1.255329 1.3404157 -0.25798494
