# .PCD v0.7 - Point Cloud Data file format
VERSION 0.7
FIELDS x y z
SIZE 4 4 4
TYPE F F F
COUNT 1 1 1
WIDTH 1533
HEIGHT 1
VIEWPOINT 0 0 0 1 0 0 0
POINTS 1533
DATA ascii
1.4537452 1.7957374 0.83794022
1.5043166 1.7986207 0.82129627
3.5873837 1.7997539 0.88847148
-0.7253319 1.8456292 0.85659719
-0.65284514 1.842206 0.8724997
-0.56603897 1.8456862 0.88656849
1.3435915 1.8169868 0.83299792
1.4520831 1.804101 0.81234121
1.5065248 1.8117678 0.86209869
3.45891 1.829435 0.86023968
3.5451124 1.813543 0.85221988
3.6074133 1.8164749 0.84812176
-0.60622656 1.9378222 0.86432457
-0.54004902 1.9578314 0.87844127
1.2973247 1.9620733 0.85576141
1.3188411 1.9575645 0.83053899
3.4262326 1.9457188 0.87140512
-0.54608083 2.0283191 0.84843045
1.3136221 2.006866 0.83680081
3.4148865 2.0134377 0.85247678
-0.58876723 -2.0114684 0.94669896
1.3495206 -2.0036449 0.94843465
3.3920126 -2.003778 0.97584176
3.4040256 -2.0223141 0.98330641
-0.58954686 -1.966596 0.93522787
1.2972357 -1.9682494 0.96064091
1.3166308 -1.9312112 0.95820153
3.3935547 -1.9514469 0.97609931
3.4225564 -1.949507 0.95098513
-0.75910634 -1.8120276 0.94956905
-0.66167808 -1.8104185 0.94403929
-0.58479244 -1.8406334 0.93930429
1.2965242 -1.8544617 0.96628606
1.3451673 -1.8043429 0.93892962
1.4534626 -1.8025684 0.9557066
1.520153 -1.8028424 0.9347986
3.3865032 -1.8514904 0.94306165
3.4481449 -1.8331143 0.97053778
3.5485482 -1.8354917 0.95863545
3.6135221 -1.8020728 0.96568704
-0.7549172 -1.7973536 0.924757
-0.65623069 -1.7981699 0.92554784
-0.57713437 -1.7977746 0.92765641
1.3636692 -1.7970394 0.95062178
1.4710809 -1.7982862 0.93279648
1.5167909 -1.7873393 0.93027002
3.4708891 -1.7788794 0.96844769
3.5439479 -1.7775221 0.96630478
3.6131144 -1.785349 0.94562876
1.367444 -0.10673904 0.93406177
1.4669725 -0.10791902 0.92099965
1.5034342 -0.10167484 0.94239461
3.4332266 -0.12037765 0.96003878
3.5552847 -0.13403997 0.96792054
3.6008611 -0.13452986 0.95906901
-0.75357145 -0.063106999 0.93121207
-0.65262401 -0.057682633 0.90653181
-0.58130461 -0.046937324 0.92335594
1.3167739 -0.053735834 0.94288808
1.4583235 -0.098314077 0.91504347
3.4170423 -0.049731106 0.958395
-0.58223963 0.044250105 0.91684318
1.318748 0.021855975 0.94586629
3.4151323 0.021517336 0.95584244
-0.57963437 0.10979304 0.96484578
1.3278623 0.10339136 0.94812077
-0.76510668 1.7923603 0.94941187
-0.67172605 1.7934752 0.94404
1.3641977 1.7936852 0.9607203
1.4726052 1.7970874 0.97249782
1.5065261 1.7971394 0.95554757
3.4741685 1.79884 0.97144711
-0.72381151 1.8435764 0.93879724
-0.62581718 1.8425763 0.97153974
-0.5548805 1.8412504 0.97313732
1.3418913 1.8409027 0.92476439
1.4594097 1.8027337 0.91091532
1.5050201 1.8083342 0.94033968
3.395401 1.8062403 0.96842903
3.4319136 1.8334688 0.94255251
3.5317969 1.8150535 0.95581907
3.6129713 1.8149991 0.95095682
-0.60920078 1.9600514 0.93766081
-0.5358417 1.9524184 0.97800082
1.3183024 1.9620672 0.93543041
3.399204 1.9748154 0.92383873
3.4227371 1.9660721 0.94790357
-0.53631371 2.0261128 0.9737224
1.3223305 2.0115652 0.92580402
3.3998778 2.0126121 0.9742794
3.4114945 2.0141068 0.95976156
-0.58925509 -2.0089455 1.021086
1.3463434 -2.005796 1.0346861
3.389832 -2.0079882 1.0663925
3.4004195 -2.0044358 1.0612397
-0.58169472 -1.948033 1.0081317
1.3098949 -1.9632325 1.0607864
3.391607 -1.9752334 1.0777469
3.4247575 -1.9520873 1.0602663
-0.76252413 -1.8130343 1.0120722
1.2973955 -1.8622711 1.079905
1.3281016 -1.822387 1.059635
1.442894 -1.8034294 1.0396895
1.5084442 -1.8020401 1.0403261
3.3933277 -1.8690246 1.0663787
3.4427764 -1.8353833 1.0720787
3.5619414 -1.8313918 1.0482329
3.6125808 -1.8174143 1.0544258
1.3606815 -1.7975072 1.0496492
1.4527029 -1.7976949 1.0373275
1.5126734 -1.7927347 1.0240084
3.4564934 -1.7775509 1.0576439
3.5740993 -1.7777094 1.0492119
3.6301222 -1.7773259 1.0540383
1.3719118 -0.10560208 1.0340935
1.4704766 -0.10709273 1.023219
1.5201449 -0.10186185 1.0878537
3.4212835 -0.11035165 1.0633807
3.5504673 -0.13335893 1.0614183
-0.73192954 -0.062142219 1.025026
-0.67744863 -0.05947721 1.0059848
-0.58631313 -0.041495621 1.005317
1.3223227 -0.078657426 1.0428073
1.4197145 -0.099231519 1.0290407
1.5111063 -0.098614633 1.0269911
3.4193017 -0.045435533 1.0550156
-0.57936954 0.043756697 1.0169065
1.3204966 0.027983073 1.0440099
3.4249911 0.026762113 1.0446303
-0.57367986 0.11662722 1.0568178
1.3286662 0.10380706 1.0403465
-0.77490228 1.789942 1.0090339
1.3452339 1.7976472 1.057461
1.4724526 1.7980305 1.0497646
1.5144432 1.7953862 1.0465066
-0.71893638 1.8398589 1.0232029
-0.64450121 1.8444325 1.0534655
-0.55629981 1.8481641 1.0773929
1.3461498 1.8403401 1.0481501
1.481111 1.8039255 1.0744686
1.5109122 1.8088344 1.025717
3.3861794 1.8298657 1.0296688
3.4303753 1.8544693 1.046931
3.5271125 1.8099954 1.07323
3.6165018 1.8176031 1.0725222
-0.60811567 1.9417543 1.0138479
-0.53547591 1.9374937 1.0824494
1.3317227 1.9534516 1.0422728
3.3984697 1.9705179 1.0232641
3.4223459 1.9573389 1.0370955
-0.53384399 2.006736 1.0732399
1.3239799 2.0097845 1.0150579
3.4262476 2.0153198 1.0765676
1.3383229 -2.0026402 1.1448298
3.3939254 -2.00963 1.1742846
1.2987057 -1.9480709 1.141335
1.3193818 -1.9485008 1.1720377
3.3974419 -1.972247 1.1753558
3.4035759 -1.9673272 1.1739857
1.2996637 -1.825547 1.1639582
1.3421953 -1.8123693 1.158676
1.4553145 -1.8023374 1.1390915
1.5169021 -1.8018692 1.1451617
3.3968718 -1.8781381 1.1729419
3.4433327 -1.8316541 1.1776649
3.5624366 -1.8329153 1.1496298
3.6181376 -1.8016516 1.1060507
1.3592299 -1.795935 1.1566041
1.4572948 -1.7953162 1.1511852
1.5266922 -1.7909541 1.1362181
3.4726658 -1.7765915 1.1339298
3.5471981 -1.7779186 1.1470107
3.6236665 -1.7785912 1.1578909
1.3844626 -0.10482302 1.1344129
1.4768047 -0.10667109 1.1184108
1.5086756 -0.1008692 1.1236722
3.4341397 -0.11777292 1.171953
3.5306554 -0.13411304 1.1515751
3.6116402 -0.13569397 1.1422683
-0.73425889 -0.062287301 1.135083
-0.66278529 -0.062256232 1.1108423
-0.58152217 -0.037648264 1.140128
1.3251083 -0.081038609 1.1444433
1.4541181 -0.098493971 1.1231428
1.5176123 -0.097907498 1.1679714
3.4226186 -0.062527664 1.1553874
-0.57838845 0.052516941 1.1453025
1.3226227 0.036090974 1.1391227
3.4167404 0.036239147 1.1543664
-0.57327992 0.11376297 1.1404679
1.3254973 0.10294163 1.1283333
1.3625451 1.7962246 1.1449112
1.4459847 1.7916471 1.1387596
3.4561071 1.797599 1.1269813
-0.7049824 1.8393061 1.1229961
-0.67184687 1.8430501 1.1579922
-0.54816639 1.8548909 1.1790448
1.3529472 1.829909 1.1375716
1.4904498 1.803014 1.1774787
1.5079494 1.8072431 1.1854128
3.3992078 1.8461387 1.1226857
3.4364872 1.8669755 1.1576864
3.5465155 1.8142313 1.1616461
3.6164739 1.8127389 1.1801659
-0.53166795 1.9594363 1.1776744
1.3345726 1.9529088 1.1301286
3.3990922 1.9351252 1.1760125
3.425544 1.9645629 1.150486
-0.53215647 2.0278354 1.1897709
1.3285236 2.0082798 1.1174829
3.3991237 2.0085864 1.143931
3.4240587 2.0070131 1.1754782
3.401804 -2.0249317 1.2483982
1.2981333 -1.9458497 1.2599993
1.3100595 -1.9405016 1.2719764
3.3965256 -1.9699911 1.2782336
3.4012556 -1.9642107 1.2782836
1.31828 -1.821635 1.2583477
1.4588077 -1.8020512 1.2399175
1.5292261 -1.8052273 1.2563965
3.3981009 -1.8837709 1.2712054
3.4456434 -1.8363818 1.2708477
3.5676684 -1.8337784 1.2504095
3.6159706 -1.8005893 1.2556621
1.360261 -1.7974854 1.2535363
1.4616363 -1.7957822 1.2432356
1.5094928 -1.7964282 1.2254531
3.4641242 -1.7729516 1.252928
3.5403328 -1.7734306 1.2490871
3.6334841 -1.7814597 1.2324657
1.3420725 -0.102676 1.254333
1.4518061 -0.10567801 1.2214667
1.5184076 -0.1004452 1.2314274
3.4457951 -0.12363327 1.2530339
3.5291786 -0.13230076 1.2231231
3.6103973 -0.13253346 1.2537408
-0.73911977 -0.059439071 1.246851
-0.66383862 -0.061304774 1.2167311
-0.57668436 -0.032790348 1.2666042
1.334131 -0.072394788 1.2404337
1.445992 -0.097464927 1.2277316
1.5106233 -0.097560063 1.2217925
3.4236431 -0.048463754 1.2614276
-0.57458645 0.047941517 1.2400626
1.3253913 0.041044198 1.2465374
3.4257936 0.041922659 1.2592221
-0.57159626 0.11918172 1.2375774
1.3319223 0.10368143 1.2318571
1.3669909 1.7939363 1.2337086
1.4700336 1.7984273 1.2184536
1.5094982 1.799787 1.2801574
3.4465723 1.7938172 1.2763195
3.5787873 1.7888871 1.2745004
-0.71503901 1.8446395 1.2316933
-0.62548059 1.8366965 1.2685894
-0.54954553 1.8605494 1.2745469
1.3511218 1.8182698 1.2358723
1.4225178 1.8037627 1.2228664
1.5073564 1.8042176 1.2784765
3.3983951 1.8353966 1.2210296
3.4476178 1.8380475 1.2426382
3.5512953 1.8094258 1.2817056
3.6105599 1.8205091 1.2371711
-0.53111047 1.9381266 1.2740829
1.3388351 1.9486285 1.2363935
3.3985679 1.9599926 1.2533045
3.4287925 1.9792377 1.2669148
-0.52945006 2.0143137 1.2777206
1.3232325 2.0081403 1.2405379
3.3979461 2.0124128 1.2789323
3.4326119 2.0149379 1.2581127
0.47019729 -2.0073304 1.3958721
0.55913329 -2.0055354 1.3985744
0.63522196 -2.0041616 1.3951719
0.73898858 -2.0044494 1.3959992
0.85256487 -2.0046611 1.3966109
0.92471373 -2.0054634 1.3912952
1.0580912 -2.0077214 1.3866396
1.1381288 -2.0046775 1.3901584
1.2298691 -2.0029454 1.383824
1.3414369 -2.0046537 1.3835151
1.746381 -2.0016077 1.3860643
1.8247473 -2.0015817 1.3692281
1.9672885 -2.0007102 1.3674443
2.0605197 -2.0030217 1.3691018
2.1674199 -2.0043004 1.3762219
2.2634144 -2.0029287 1.378894
2.3701787 -2.0075688 1.3809583
2.5759678 -2.0098805 1.3792374
2.6356685 -2.0039206 1.3755176
2.7475839 -2.0144911 1.3723327
2.8595715 -2.0081139 1.3660152
2.9397373 -2.0081251 1.3679142
3.0490088 -2.014816 1.363132
3.1562464 -2.0134153 1.3619466
3.2552483 -2.0133729 1.3653165
3.3434668 -2.0176435 1.3598604
3.4060361 -2.0142765 1.3330076
0.25088176 -1.9260793 1.3971667
0.34019819 -1.9378451 1.3982792
0.4564088 -1.9368522 1.398345
0.55259836 -1.9459519 1.394961
0.6542232 -1.9530041 1.3952298
0.76614326 -1.9585536 1.3962121
0.8646903 -1.9487532 1.3947284
0.96728832 -1.9534705 1.3922465
1.0662485 -1.9473573 1.3898787
1.1408353 -1.9656363 1.3926146
1.2879624 -1.9446609 1.3856049
1.305475 -1.9437771 1.3424385
1.573746 -1.9446903 1.3965336
1.6586275 -1.9481131 1.3926394
1.7439904 -1.9736167 1.3938208
1.8487331 -1.9306288 1.3894879
1.9336929 -1.9526827 1.3855252
2.033947 -1.9706868 1.3862594
2.1733344 -1.9477694 1.3831792
2.2564471 -1.9516112 1.38099
2.3630223 -1.9429976 1.379684
2.4598012 -1.960958 1.3781848
2.5468848 -1.9407144 1.3764362
2.6573951 -1.9566653 1.3725326
2.7537785 -1.9595356 1.3719709
2.8338931 -1.9403294 1.3708453
2.9496217 -1.9520355 1.3666469
3.0556557 -1.970521 1.3647267
3.1685681 -1.9443135 1.3649249
3.2571287 -1.9553639 1.360532
3.3658442 -1.9688795 1.3557999
3.4036825 -1.9474343 1.3413188
0.25724334 -1.8677595 1.3975821
0.45213875 -1.8720479 1.3982084
0.55105174 -1.8380976 1.3958995
0.65149635 -1.8484714 1.3951473
0.75979829 -1.860567 1.395797
0.85676867 -1.864738 1.3918077
0.95612073 -1.8737285 1.3899071
1.0427084 -1.8714468 1.3944957
1.147429 -1.8556529 1.3934555
1.2730176 -1.8434684 1.3882961
1.3082414 -1.834749 1.3770974
1.4679877 -1.8033165 1.3387285
1.5564146 -1.877737 1.3908869
1.6189818 -1.856202 1.393831
1.7638097 -1.8485782 1.3945236
1.8754866 -1.8547387 1.3906498
1.9392232 -1.8466972 1.3894321
2.0532572 -1.818409 1.3898389
2.1369076 -1.8375956 1.3834496
2.2757456 -1.8356946 1.3769207
2.356586 -1.8548179 1.384799
2.4537766 -1.8605572 1.3851333
2.5418658 -1.823523 1.3912163
2.6507621 -1.8337023 1.3871853
2.7579944 -1.8466998 1.3792256
2.8636751 -1.8374739 1.3728468
2.9626565 -1.8384409 1.3735611
3.0746491 -1.8550295 1.3665167
3.1517544 -1.8563586 1.3761538
3.2499056 -1.8376061 1.3840758
3.349788 -1.8557595 1.3712837
3.4471035 -1.8287482 1.3410655
3.5491884 -1.8143936 1.347581
3.6101162 -1.815865 1.3196118
0.46095374 -1.7995951 1.3985031
0.56340003 -1.7981851 1.3927366
0.64485019 -1.7970608 1.3847816
0.74905401 -1.7970636 1.3943832
0.86373067 -1.7965788 1.3964355
0.92508745 -1.7956178 1.3945787
1.0360459 -1.7946069 1.3912606
1.1529605 -1.7926825 1.3919251
1.2548745 -1.7898318 1.3890901
1.3659167 -1.7889676 1.3649381
1.4604321 -1.7785922 1.3667768
1.5139763 -1.7501121 1.370242
1.6660585 -1.7948506 1.3889154
1.7833245 -1.7918193 1.3964366
1.8796288 -1.7847872 1.382928
1.9599543 -1.7929308 1.3927593
2.0522346 -1.7855821 1.388383
2.1378298 -1.7881765 1.3792353
2.255487 -1.7918942 1.3738005
2.349705 -1.7829515 1.3815614
2.4597077 -1.7825851 1.388308
2.5137081 -1.7924181 1.3910588
2.6209049 -1.7877017 1.3840945
2.7657797 -1.7862104 1.3768623
2.8531928 -1.7779214 1.3838408
2.9695647 -1.7774434 1.3675792
3.0399446 -1.7780019 1.3863314
3.1306775 -1.77443 1.3668301
3.259887 -1.7768397 1.3609139
3.3449826 -1.7748601 1.3672456
3.4195943 -1.7723541 1.374409
3.5570662 -1.73204 1.3538065
3.6316733 -1.7503023 1.3298302
1.3876753 -1.6594627 1.3953257
1.4840372 -1.6522515 1.3967125
1.513612 -1.6665082 1.3913404
3.3972564 -1.6289268 1.3887076
3.4264686 -1.672255 1.3761237
3.5657632 -1.6168144 1.35374
3.6295927 -1.6279578 1.3345373
1.3545139 -1.5366986 1.3963704
1.4676962 -1.5505431 1.3915027
1.5191449 -1.5447969 1.3849865
3.4480314 -1.5749513 1.3643637
3.5744443 -1.5235268 1.3535216
3.6355979 -1.525387 1.3349476
1.346193 -1.4458054 1.3945447
1.4654306 -1.4527415 1.3951081
1.5075833 -1.442986 1.3939698
3.440232 -1.4655496 1.3709751
3.552434 -1.4543406 1.3512836
3.6156828 -1.4541159 1.346184
1.3734839 -1.3288338 1.3913045
1.4535284 -1.3536624 1.3934976
1.5168731 -1.3479118 1.3888068
3.4191008 -1.354003 1.3758073
3.5448134 -1.3663534 1.3551427
3.6110353 -1.3209565 1.3455803
1.346016 -1.2578518 1.3922641
1.4705842 -1.2225709 1.3957949
1.5128493 -1.2627865 1.3886352
3.4310989 -1.2618701 1.3730352
3.5628676 -1.2607592 1.3529665
3.6127334 -1.2625475 1.3496375
1.3661569 -1.1241117 1.3924656
1.4777658 -1.1389713 1.3954785
1.5069189 -1.1554297 1.3868763
3.4241016 -1.1582266 1.3722838
3.5347357 -1.1713082 1.3483946
3.6127369 -1.1556561 1.344646
1.3517035 -1.0598612 1.3958822
1.437423 -1.0451438 1.3939095
1.5066233 -1.0490031 1.3950968
3.4360688 -1.0623137 1.3701617
3.5695033 -1.0840311 1.350991
3.6237795 -1.0282923 1.3325956
1.3490126 -0.98128819 1.3946137
1.4446335 -0.92801911 1.3919207
1.5054889 -0.93632299 1.392146
3.444849 -0.9646365 1.3652239
3.5769334 -0.98557842 1.3490841
3.6112609 -0.92776573 1.3451542
1.3511434 -0.87248361 1.3934491
1.4567313 -0.82870442 1.3905467
1.5103753 -0.85598636 1.3911891
3.4266777 -0.84775889 1.3732697
3.5355432 -0.87078846 1.3483047
3.6169362 -0.86565685 1.3450646
1.3415996 -0.77973717 1.3919214
1.4661613 -0.72302514 1.3891701
1.5088284 -0.77086282 1.387971
3.424073 -0.74027032 1.3691788
3.5509179 -0.76754344 1.3471938
3.6121175 -0.7251147 1.3421624
1.3539886 -0.68503165 1.3903443
1.4504287 -0.61288387 1.3877075
1.5097127 -0.64559788 1.3937616
3.4345188 -0.6466884 1.3700792
3.5660655 -0.67343974 1.3454914
3.6127629 -0.62521684 1.3363175
1.3435291 -0.57282031 1.3909823
1.4552375 -0.52596813 1.3849359
1.5040489 -0.53323293 1.3877418
3.4422209 -0.5445649 1.367424
3.5561357 -0.57279611 1.3458843
3.6145701 -0.53360707 1.3368901
1.3474441 -0.47193658 1.3899822
1.4457518 -0.42702591 1.3862225
1.5093641 -0.43745774 1.3867433
3.4255886 -0.44048119 1.3668528
3.5502851 -0.46792778 1.3452896
3.6247783 -0.43149465 1.3519888
1.361719 -0.37258327 1.3921379
1.4623919 -0.3283236 1.3832053
1.5124222 -0.34282219 1.3823487
3.4377382 -0.33826572 1.3645583
3.5513804 -0.36449921 1.3443611
3.63381 -0.35759357 1.3507617
1.3664824 -0.27120492 1.3884332
1.4812202 -0.22756003 1.385116
1.5121884 -0.27771735 1.3779955
3.4346409 -0.23700397 1.372118
3.5634933 -0.26625726 1.3430594
3.6169999 -0.28866667 1.3422571
0.64794457 -0.10638428 1.3940994
0.73347247 -0.10163507 1.3957008
0.83852941 -0.10416245 1.3980846
0.93908274 -0.10458049 1.3948606
1.0234753 -0.10396262 1.3844762
1.107173 -0.10174757 1.3818799
1.3667954 -0.17318283 1.3837585
1.443248 -0.13559158 1.3637044
1.5255942 -0.11398549 1.3750525
1.6339473 -0.10005274 1.3962473
1.7564167 -0.10262513 1.3983895
1.8518339 -0.10084882 1.385726
1.9464833 -0.10263963 1.3757974
2.1307993 -0.10915418 1.3731968
2.2044532 -0.11533107 1.3722156
2.3432117 -0.11144619 1.3796067
2.4582853 -0.10153575 1.3753952
2.5642543 -0.10848224 1.3731698
2.6406922 -0.11465614 1.3784146
2.7382395 -0.11848548 1.3665326
2.8292277 -0.12149215 1.3823667
2.9548066 -0.10972621 1.3558559
3.0712669 -0.1229606 1.3662983
3.1166244 -0.10342517 1.3481441
3.2261374 -0.11535162 1.3767674
3.3505721 -0.1247566 1.3572407
3.4465766 -0.13287748 1.3434105
3.5604789 -0.16744468 1.3414952
3.6117399 -0.17711526 1.3418422
-0.74128407 -0.058932874 1.3412583
-0.63889962 -0.052855611 1.3222091
-0.57517034 -0.035735197 1.3086627
0.57566845 -0.060981374 1.395746
0.64395326 -0.048619576 1.3900405
0.732867 -0.064357467 1.3856676
0.86244714 -0.059500195 1.3979526
0.94185686 -0.034282923 1.3989842
1.038718 -0.024335591 1.3942492
1.143913 -0.065630645 1.3941398
1.2343886 -0.049470514 1.3904278
1.3250296 -0.072149388 1.378479
1.4717587 -0.096460983 1.3228359
1.5779941 -0.062741332 1.3784142
1.6494062 -0.045591578 1.3843472
1.7502049 -0.060581796 1.3811474
1.8504629 -0.064693786 1.3788512
1.9618511 -0.052820284 1.3753573
2.0587397 -0.06416367 1.3742501
2.1695824 -0.062010858 1.3747431
2.2569172 -0.066290021 1.3729683
2.3630915 -0.054392323 1.3625046
2.4721317 -0.05810979 1.3686252
2.5573306 -0.050662771 1.3632872
2.651613 -0.059580274 1.3617172
2.7543797 -0.066148661 1.3602126
2.8623123 -0.057085592 1.3563868
2.9566574 -0.040203258 1.353187
3.0693197 -0.049510151 1.3528064
3.1533341 -0.047064759 1.350001
3.2709777 -0.049371898 1.3495153
3.3571148 -0.043018773 1.3436768
3.4126711 -0.02949968 1.3373352
-0.57414335 0.054172553 1.3150325
0.4817003 0.098332077 1.3997227
0.55093205 0.083890706 1.3965995
0.61504656 0.039205011 1.388289
0.75118637 0.065748736 1.3985302
0.85331219 0.06146441 1.3958215
0.9585889 0.056550343 1.3960428
1.0660737 0.068872347 1.3945997
1.1624335 0.055509031 1.3930947
1.2604046 0.054702722 1.3884845
1.3193467 0.046730869 1.3631783
1.6849307 0.041855644 1.3793228
1.7561454 0.044687126 1.3785994
1.8486533 0.05823892 1.3779358
1.9562528 0.055910658 1.3764842
2.0615602 0.037468333 1.3729763
2.1552022 0.031815931 1.3688974
2.251132 0.03296072 1.3699275
2.3503933 0.041441005 1.366363
2.4587183 0.029615223 1.3630844
2.563483 0.027326137 1.3665584
2.6230576 0.027844511 1.3616011
2.7065129 0.03139165 1.3591459
2.814446 0.031811744 1.3575391
2.9320993 0.031428769 1.3543646
3.0224314 0.039279014 1.3550682
3.1252251 0.021748841 1.3505783
3.2487955 0.028174728 1.34909
3.328418 0.060258687 1.3503203
3.4184847 0.075160772 1.3539524
3.5018938 0.093465269 1.3372098
-0.57399803 0.11910965 1.3043194
0.56826806 0.10791828 1.3937172
0.7844938 0.10430494 1.3979322
0.8570081 0.10313874 1.3987724
0.90615523 0.10097031 1.3946725
1.0292486 0.10875696 1.3959891
1.1453277 0.10269316 1.3985156
1.2999589 0.10304487 1.3900913
1.329538 0.15820479 1.3850822
1.4110105 0.18494749 1.3870623
1.5111091 0.16638112 1.3887086
3.4462068 0.1540997 1.3615044
3.5504661 0.14946693 1.3412933
3.6018474 0.19691408 1.3443494
1.3423468 0.21693261 1.3873955
1.4229794 0.2614364 1.3857031
1.5055143 0.27038997 1.3805171
3.4472351 0.2733649 1.370717
3.5660965 0.28415155 1.3506141
3.6365232 0.29233831 1.3494022
1.3455398 0.31845206 1.3797019
1.4299415 0.31854078 1.3796154
1.5085516 0.34539464 1.3744247
3.4408996 0.35228306 1.3646728
3.5465775 0.348959 1.3504057
3.6244676 0.35882702 1.3471594
1.3564734 0.44680047 1.3824641
1.4273586 0.45393917 1.3843555
1.5081056 0.44093922 1.3828977
3.4337583 0.45832014 1.3668896
3.5424652 0.45131916 1.3515251
3.6130633 0.45377254 1.3489816
1.3625176 0.5498029 1.3817341
1.4291813 0.5326212 1.3864326
1.516541 0.5372318 1.3825856
3.451458 0.57827622 1.3386297
3.554424 0.58424658 1.3274435
3.6184986 0.57832682 1.3361237
1.3576024 0.64613461 1.3845508
1.4408861 0.63255072 1.3824271
1.5254211 0.65212119 1.3795741
3.4401481 0.65363985 1.3369473
3.5320725 0.66121829 1.3286834
3.6270206 0.62929672 1.3285682
1.3527728 0.7506997 1.3859385
1.4388037 0.73655415 1.3871425
1.5219343 0.74319619 1.3824422
3.4681706 0.76346338 1.339273
3.5545604 0.76722074 1.3272885
3.6063225 0.76560837 1.3340433
1.3601565 0.88969767 1.381278
1.4255514 0.83841228 1.3852414
1.5069081 0.84091949 1.3821136
3.432348 0.84522516 1.3375193
3.5421402 0.86534452 1.3277189
3.6051445 0.86972547 1.3268969
1.3687512 0.94782704 1.3836315
1.4342915 0.94298905 1.3830328
1.5034877 0.93946707 1.3816922
3.4529915 0.96556693 1.3335055
3.5640161 0.96242654 1.3262142
3.6179886 0.97778797 1.3268579
1.3663481 1.0380135 1.3830974
1.4528133 1.0453147 1.3786439
1.5093699 1.0567179 1.3847117
3.4471788 1.0765954 1.3640274
3.559418 1.0654796 1.3248003
3.6247239 1.061286 1.3247368
1.3618009 1.1683726 1.3829639
1.4553045 1.1616752 1.3791916
1.5214927 1.1347699 1.3804026
3.437233 1.1693228 1.356884
3.5751536 1.161167 1.3245198
3.6175117 1.1619728 1.3240467
1.3671589 1.2539603 1.3775866
1.4431835 1.2571718 1.3775928
1.5142617 1.2378547 1.3813925
3.445509 1.2609155 1.3372343
3.5654054 1.2564902 1.3249404
3.6192913 1.2600188 1.3315749
1.362057 1.3418474 1.3845526
1.4425149 1.3500919 1.3775755
1.5090083 1.3397303 1.3808846
3.3959432 1.3346291 1.3702818
3.4436748 1.3662175 1.3532194
3.5719638 1.3631716 1.3249513
3.6235425 1.3695762 1.3254883
1.3556226 1.4608778 1.3775467
1.43091 1.4439095 1.3789908
1.5034971 1.4409983 1.3813798
3.4485977 1.4702412 1.3511409
3.544812 1.4679142 1.323815
3.6259792 1.4559767 1.3291148
1.3670604 1.5657747 1.3808076
1.4462665 1.5481215 1.3819879
1.512727 1.5730015 1.3825645
3.3994992 1.5295368 1.3799343
3.4466903 1.5658897 1.3512148
3.5702567 1.5619922 1.3243222
3.6245122 1.5536664 1.3268647
1.3649017 1.6516774 1.3812135
1.4551578 1.6468377 1.3811855
1.5231172 1.6436626 1.3785377
3.4437594 1.6661074 1.3718045
3.556284 1.6633217 1.3206768
3.6181304 1.6461403 1.330276
0.54780817 1.7940441 1.3950504
0.65611458 1.7933235 1.3923146
0.85076046 1.7942678 1.3877077
0.93389636 1.796785 1.3903705
1.0090511 1.7963355 1.3904185
1.1712508 1.7986264 1.3900721
1.2275994 1.7949514 1.3942398
1.3494799 1.7312915 1.3727885
1.4330139 1.769822 1.3643723
1.5198412 1.7463222 1.3820767
1.6482134 1.798285 1.3866321
1.7577723 1.7993768 1.377018
1.8407995 1.7990005 1.3773278
1.945454 1.7971252 1.3855224
2.0402014 1.7975101 1.3852155
2.1699619 1.7977525 1.3566936
2.2745879 1.7983055 1.3537034
2.3840199 1.7968447 1.3607705
2.9194446 1.7966499 1.3955281
3.087935 1.7997121 1.3787596
3.1207194 1.7988024 1.3831874
3.3926136 1.7337358 1.3730338
3.4232478 1.7738004 1.3761301
3.5743728 1.7820587 1.321687
3.6091819 1.7570815 1.3219589
-0.71507835 1.8420659 1.3469008
-0.65286964 1.8392572 1.3542262
-0.56954014 1.8364328 1.3932531
0.27111807 1.8364439 1.3975089
0.35940385 1.839908 1.396664
0.46705532 1.84428 1.3959639
0.53522056 1.8373878 1.3868077
0.63892674 1.8566236 1.3953598
0.76146865 1.8570368 1.3962367
0.83313727 1.8759704 1.3962166
0.9476912 1.8451827 1.3980259
1.0398825 1.836466 1.3965952
1.1400748 1.84873 1.390749
1.2508334 1.8278898 1.3880302
1.3514 1.8253549 1.3541002
1.436376 1.802362 1.3181231
1.5413975 1.819672 1.3611716
1.6526089 1.85417 1.3828955
1.7331593 1.8294051 1.3861771
1.8373927 1.8296282 1.3784523
1.9212701 1.8448739 1.3753704
2.0298522 1.8443127 1.370791
2.1148069 1.8681479 1.3725234
2.2494712 1.8483901 1.3748152
2.3584373 1.8281951 1.3799735
2.4463816 1.8327779 1.3786297
2.5413654 1.8445891 1.3744599
2.6317673 1.8457651 1.3696866
2.7409012 1.8335905 1.3777646
2.8235245 1.8438507 1.3663125
2.9579916 1.834581 1.3762959
3.0570862 1.8396515 1.3645548
3.1505697 1.8399459 1.3767567
3.2592371 1.8239701 1.3692243
3.3541765 1.8556446 1.3478199
3.4207938 1.8486104 1.3379428
3.5376101 1.8192672 1.3105155
3.6127949 1.8140403 1.3144319
-0.51934928 1.947701 1.3912379
0.050288677 1.9482875 1.3996865
0.13080692 1.9758461 1.3985003
0.2677626 1.9432875 1.396804
0.34711838 1.9396987 1.3960435
0.44305906 1.9555438 1.3968495
0.5318085 1.9323488 1.3963716
0.66795909 1.9365988 1.3974075
0.74074197 1.9637742 1.3952209
0.82561362 1.9383655 1.3946764
0.96328056 1.9712328 1.3946702
1.0473722 1.9415723 1.3927027
1.1579096 1.9785227 1.3916199
1.2606105 1.94419 1.3852929
1.3283647 1.9553381 1.376032
1.5704736 1.9336476 1.3845022
1.6414794 1.958241 1.3756086
1.7303358 1.9467119 1.3772049
1.8382244 1.9661574 1.3728216
1.9201655 1.9480464 1.3735619
2.0328548 1.9600642 1.3738179
2.142837 1.9725108 1.3678389
2.2581899 1.9503938 1.3689833
2.3716514 1.9625137 1.3656902
2.4460714 1.9510481 1.3662392
2.5498202 1.9646584 1.3670305
2.6209221 1.967731 1.3632197
2.7360454 1.960218 1.3627806
2.8341007 1.9609214 1.3584878
2.9538422 1.9649835 1.359601
3.0620527 1.96509 1.3549957
3.1618731 1.9680732 1.3531041
3.2535391 1.9611322 1.3501505
3.3540361 1.9653465 1.3285047
3.412987 1.9585644 1.3290359
-0.52802956 2.0257308 1.3884364
0.2062912 2.0038717 1.3944807
0.47603738 2.0019422 1.3949844
0.54996741 2.0042114 1.3937708
0.65511155 2.0042367 1.3943503
0.7226429 2.0059261 1.3920903
0.82810348 2.0063264 1.3924565
0.94094056 2.0044222 1.3938109
1.0507301 2.0031133 1.3874676
1.1725068 2.0047214 1.3882786
1.2579784 2.0077505 1.3908437
1.31488 2.0091829 1.3638638
1.6525428 2.0140901 1.3740282
1.7266028 2.0054264 1.3799734
1.8544786 2.007575 1.3800604
1.9369506 2.0068123 1.3660852
2.0327446 2.0144601 1.3686435
2.1505339 2.0122707 1.3522705
2.2821259 2.0143199 1.3534999
2.3490849 2.011807 1.3609111
2.4324594 2.0087938 1.3631704
2.5367849 2.0149803 1.3516868
2.6608768 2.0158663 1.3461033
2.7408535 2.0129354 1.3455454
2.8669224 2.0144172 1.3417258
2.9296975 2.0143769 1.3462179
3.0655966 2.0166745 1.3468704
3.1599824 2.0080943 1.332972
3.2665539 2.0170546 1.3471
3.3644123 2.016377 1.3526866
3.4098532 2.0170138 1.3410027
0.095694341 -2.0160673 1.4183462
0.15098575 -2.0145121 1.4132745
0.25749826 -2.0060048 1.4046743
0.36265823 -2.0088921 1.4133447
0.4528783 -2.0118642 1.4083059
0.52041918 -2.0118382 1.4036341
0.63426113 -2.0101869 1.4027867
0.77683663 -2.0027177 1.4042943
0.8003006 -2.0097494 1.4036142
1.0650587 -2.016295 1.4031105
0.1784915 -1.963681 1.4169443
0.26121092 -1.9535215 1.4120436
0.36386907 -1.9641652 1.4149121
0.44533122 -1.9499995 1.4135246
0.5581398 -1.9518002 1.4169101
0.64758486 -1.9407293 1.4177564
0.77074128 -1.9536042 1.4151007
0.84799707 -1.9673383 1.4109006
0.9503091 -1.9568337 1.4102812
1.0440564 -1.9507115 1.4075079
1.133818 -1.9669076 1.4075567
1.2308694 -1.9423695 1.4039633
1.5944884 -1.9732072 1.4029953
0.18540995 -1.848157 1.4220104
0.24495161 -1.8458439 1.4245051
0.37540621 -1.8200212 1.4674755
0.44312733 -1.8374634 1.4315488
0.57248098 -1.8320838 1.4247227
0.65088773 -1.8357296 1.4298593
0.75546867 -1.81519 1.4365383
0.86107439 -1.859092 1.41697
0.95576137 -1.8526137 1.4118769
1.0462677 -1.8303338 1.4132401
1.1328683 -1.8604994 1.409306
1.2615465 -1.8386393 1.415494
1.341922 -1.8037244 1.4799058
1.552274 -1.8036594 1.4302139
1.6646144 -1.8109435 1.4113142
1.7539934 -1.8012823 1.4437834
1.8437611 -1.8024817 1.4544334
1.9566178 -1.8037965 1.4504178
2.0545743 -1.804745 1.4628894
2.1590097 -1.8038322 1.4619137
2.2442355 -1.8125826 1.4501443
2.3222241 -1.8148029 1.4170051
2.4349213 -1.8189554 1.4108036
2.5729177 -1.8162599 1.4622048
2.6607022 -1.8165034 1.4781641
2.763665 -1.8203382 1.4530582
2.8656979 -1.8195662 1.4462345
2.9476061 -1.8226643 1.4369998
3.0317442 -1.8261929 1.4218774
3.1140175 -1.8211495 1.4247843
3.262238 -1.8202114 1.4879022
3.3374059 -1.8224123 1.4757121
3.4038556 -1.8192255 1.4733927
0.16252621 -1.7952877 1.4645332
0.24225166 -1.798882 1.4458288
0.35837173 -1.7979411 1.4313356
0.46881336 -1.796792 1.4382794
0.55706608 -1.7887955 1.4557012
0.66330689 -1.7905346 1.4463272
0.75361586 -1.7962177 1.4623275
0.85138488 -1.7920758 1.4386063
0.96227276 -1.7880875 1.4265494
1.0460669 -1.7930187 1.4894263
1.1575586 -1.7949524 1.4563217
1.270613 -1.7961146 1.4620007
1.3258736 -1.7381492 1.4309262
1.4378749 -1.7600625 1.4023609
1.5818368 -1.7932724 1.4276662
1.6291969 -1.7942594 1.4190905
1.767622 -1.7933825 1.4441919
1.8191756 -1.7975034 1.4677138
1.9453124 -1.7982006 1.4630289
2.0484393 -1.7949977 1.4585372
2.1310582 -1.7927568 1.4510993
2.2478747 -1.7950922 1.4252754
2.3231711 -1.7853177 1.42694
2.4246445 -1.7853624 1.4260211
2.5301876 -1.7925172 1.4895698
2.6424668 -1.7873979 1.4562393
2.7520037 -1.7876163 1.4484428
2.8380075 -1.785866 1.4578507
2.9444048 -1.7817266 1.4543281
3.0472698 -1.7818289 1.4582596
3.1511774 -1.7812499 1.4426699
3.2440872 -1.7798096 1.4439081
3.3330007 -1.777966 1.4486675
3.4068003 -1.7566236 1.4746045
1.3398381 -1.6484143 1.4229192
1.4313524 -1.6445563 1.401902
1.5126535 -1.6711807 1.4052746
3.395443 -1.6498501 1.4236807
3.4062512 -1.6647676 1.4787983
1.3625339 -1.5211842 1.4242938
1.4415647 -1.5496887 1.4013366
3.4064627 -1.5594316 1.4496127
1.3372681 -1.4364144 1.4288983
1.4372411 -1.4931681 1.4006572
1.5062653 -1.4728756 1.4003611
3.4070349 -1.4613091 1.4793346
1.3394798 -1.3576487 1.4313402
1.4266274 -1.3594767 1.4011641
1.5045122 -1.3808701 1.4027542
3.4117694 -1.362664 1.4741046
1.3277197 -1.233346 1.4449323
3.4072006 -1.250044 1.4750463
1.3218461 -1.1384561 1.4422381
1.4146094 -1.1361054 1.4010425
1.5065343 -1.1532936 1.401842
3.4139357 -1.1663346 1.475453
1.3334925 -1.0520988 1.4370797
1.4495417 -1.0566225 1.4017711
3.4127402 -1.0466354 1.4727697
-0.75054199 -0.91041601 1.4450834
-0.61314261 -0.92187786 1.4357911
1.341568 -0.96435726 1.4203556
1.4123354 -0.94026476 1.402845
1.5146401 -0.94848704 1.4019569
3.4150796 -0.9485749 1.4686651
-0.76071894 -0.82165635 1.4458435
-0.65110683 -0.84937489 1.4422851
1.3317579 -0.8729828 1.44021
3.4165154 -0.84486771 1.4685903
-0.76338351 -0.71855265 1.4400501
-0.68693238 -0.72607422 1.4381671
-0.59578836 -0.74664104 1.4440236
1.3459581 -0.78023624 1.4237894
1.4437732 -0.7416563 1.4042351
3.4167206 -0.7414937 1.4666833
-0.74577558 -0.64287275 1.4403672
-0.65476817 -0.64905214 1.4405143
-0.58495951 -0.64831245 1.4403019
1.3373148 -0.67051792 1.4204724
1.4362731 -0.68734491 1.400785
3.420294 -0.6562199 1.45333
-0.73384243 -0.52201062 1.4418745
-0.61916453 -0.55373991 1.4408369
-0.57921875 -0.57158899 1.4438756
1.3501874 -0.57167387 1.4197532
3.4173656 -0.53615552 1.4637225
-0.74114496 -0.42357194 1.4361967
-0.62788099 -0.44449952 1.4392793
-0.56495112 -0.48660594 1.4269179
1.3488204 -0.46512425 1.4218571
3.4209514 -0.43330628 1.4622025
-0.75099808 -0.32008231 1.4389338
-0.66685504 -0.33147898 1.4355273
-0.58980954 -0.34879249 1.4376528
1.3360618 -0.37374327 1.4527078
3.4234874 -0.33966199 1.4630529
-0.73426741 -0.2241489 1.4377327
-0.64621925 -0.2293703 1.4372752
-0.58507603 -0.25753802 1.4392072
1.3331335 -0.26456833 1.4302247
1.5322285 -0.25173694 1.4054573
3.4235582 -0.25210729 1.4563085
-0.7442227 -0.13210294 1.4331932
-0.6416046 -0.12986341 1.4329295
-0.57803833 -0.14658307 1.4590784
0.55143738 -0.10505739 1.409832
0.64356387 -0.10482533 1.4103355
0.74662322 -0.10619068 1.4053791
0.84436083 -0.10615809 1.4011431
1.2584281 -0.1156948 1.4596202
1.32952 -0.14979607 1.4234798
1.4361122 -0.1425209 1.4012083
1.587021 -0.10322231 1.4964193
1.6550059 -0.10455516 1.4720526
1.7508217 -0.10631695 1.4642042
1.852021 -0.10779557 1.4754912
1.9544201 -0.10908315 1.4607078
2.0479755 -0.11014858 1.4498959
2.1578603 -0.11219057 1.4371992
2.2642336 -0.10814309 1.4119024
2.3627007 -0.10772093 1.4707892
2.4595098 -0.11529438 1.4909999
2.5578976 -0.11639056 1.4719002
2.6455345 -0.11831637 1.4726657
2.7451026 -0.11920712 1.4504186
2.8540606 -0.12011138 1.4412789
2.95469 -0.1227298 1.4289227
3.012907 -0.12260599 1.432713
3.1628017 -0.12444724 1.4800829
3.24965 -0.12385219 1.4901719
3.3232436 -0.12591505 1.4641111
3.421031 -0.16322839 1.4644829
-0.74794877 -0.087490335 1.434492
-0.63498396 -0.063475564 1.4142218
-0.54377568 -0.052149098 1.4483191
-0.431059 -0.055056911 1.4548022
-0.33475098 -0.054248966 1.4443862
-0.24872027 -0.037698735 1.4405904
-0.12812878 -0.047790661 1.4314487
-0.03080602 -0.047120124 1.4282775
0.077399276 -0.058072496 1.421486
0.17539348 -0.060918968 1.416769
0.24182877 -0.062990934 1.4442139
0.34025013 -0.047352433 1.4268084
0.44245961 -0.065896049 1.4243925
0.53505516 -0.072644427 1.431983
0.6280064 -0.049449895 1.4171461
0.72462469 -0.059229281 1.4108829
0.82490063 -0.063279562 1.4103405
0.93513393 -0.083113514 1.4476455
1.0312434 -0.088634431 1.4543101
1.1282364 -0.096341699 1.47296
1.2523845 -0.068850167 1.4406869
1.3249512 -0.08040303 1.4268281
1.5797681 -0.095173553 1.481856
1.6733478 -0.098311976 1.4755428
1.7566719 -0.099069029 1.4919109
1.8396966 -0.099145561 1.4899385
2.22403 -0.0929984 1.4072553
-0.54605788 0.06025942 1.412192
-0.41879967 0.028424794 1.4276246
-0.3491697 0.067249596 1.4235345
-0.25655955 0.068288058 1.4236701
-0.16043821 0.056454219 1.4216644
-0.079128362 0.062786639 1.4203494
0.025188262 0.049090229 1.4179704
0.13589235 0.041782975 1.4135915
0.2370083 0.074391462 1.4129477
0.3286342 0.069987938 1.412357
0.44672841 0.059194244 1.4112659
0.5368309 0.044646829 1.4075341
0.64679337 0.069940813 1.4041499
0.75070828 0.065236717 1.4022551
0.84147161 0.047651649 1.4016167
0.94746828 0.036004879 1.4026716
1.0384877 0.051601715 1.4063275
1.1520436 0.075050689 1.40409
1.2731414 0.046379216 1.4056113
1.3203259 0.04083734 1.4052943
-0.62799919 0.18122937 1.429324
-0.56654114 0.16955738 1.458919
-0.4600839 0.11575599 1.4283524
-0.34242028 0.11362584 1.4252117
-0.24646896 0.11839509 1.4240057
-0.1505391 0.11668504 1.4191515
-0.052998997 0.11520335 1.4182036
0.028474592 0.10868958 1.4182693
0.13257831 0.1106241 1.4153109
0.25802562 0.11476935 1.4173359
0.35188568 0.11165113 1.4130652
0.45384863 0.10667937 1.4173908
0.5604161 0.10603557 1.4078774
0.64481848 0.10951147 1.4070492
0.74727434 0.10344207 1.4074676
0.82528716 0.10728166 1.4071786
0.95023453 0.10403208 1.4022787
1.2752793 0.10129685 1.4051734
1.3335021 0.17373151 1.4447719
3.4270315 0.15690608 1.4598398
-0.73640013 0.23761411 1.4325185
-0.67289972 0.24655049 1.4323033
-0.5795337 0.25725383 1.4390777
1.3374228 0.23690242 1.4379551
3.4453769 0.27701125 1.4283247
-0.73458636 0.32166222 1.4318668
-0.64715803 0.38076228 1.4284756
-0.56938219 0.35560423 1.4450436
1.3411676 0.33060113 1.4322958
1.5367215 0.39419624 1.4013796
3.4346178 0.34398234 1.4105322
-0.72166246 0.42265609 1.4332095
-0.62177408 0.46656868 1.429111
-0.5703367 0.45438042 1.4376955
1.3419294 0.44443631 1.4449407
3.437861 0.45425814 1.4150186
-0.74923658 0.53458303 1.431463
-0.68449867 0.5239532 1.4309454
-0.5777055 0.57036304 1.4449227
1.3452094 0.54133713 1.4510405
1.5046088 0.5087024 1.4072623
3.4382935 0.57068247 1.4483147
-0.73913097 0.61973637 1.4309824
-0.65631264 0.64333534 1.4280573
-0.55932891 0.67415714 1.4615465
1.3479756 0.64895982 1.4358401
3.4365706 0.64544743 1.4491812
-0.71788722 0.72475874 1.427514
-0.63621438 0.76278293 1.4272313
-0.56227964 0.77077889 1.4572881
1.3456095 0.74583012 1.4343671
1.4455111 0.73545951 1.4003695
3.3959558 0.70477641 1.4568166
3.4389765 0.76982617 1.4486755
-0.71265811 0.82408679 1.4268453
-0.61914718 0.86922497 1.4259149
-0.55435222 0.87056088 1.4745942
1.3476794 0.84762204 1.4419568
3.4357708 0.86660534 1.4479785
-0.71408987 0.92939651 1.4257069
-0.66887999 0.93174464 1.4274392
-0.5604583 0.96116 1.4490914
1.3446264 0.95226836 1.462732
3.4396398 0.96582079 1.4478825
-0.73079079 1.0319688 1.4273787
-0.67116952 1.01929 1.4231106
-0.55493128 1.072559 1.4574445
1.35498 1.0444268 1.4148717
3.3998742 1.033868 1.4148939
3.4370446 1.0636019 1.4626673
-0.71417832 1.1572666 1.4274133
-0.65544528 1.1388382 1.4213438
-0.54641753 1.1495507 1.4772525
1.3529643 1.1297284 1.421494
3.4346046 1.1664349 1.4694989
-0.73480368 1.2513344 1.4257941
-0.65194821 1.2327234 1.4258497
-0.55405813 1.2223167 1.4632617
1.3484873 1.2358595 1.4292679
3.4369197 1.2686543 1.4724731
-0.72298431 1.3627124 1.4266419
-0.64177215 1.334538 1.4226191
-0.54481173 1.3468053 1.4577291
1.3458759 1.3500826 1.4268425
3.3994904 1.3301977 1.4178824
3.4263134 1.3804829 1.4554244
-0.73059821 1.4548266 1.42644
-0.65141129 1.4433442 1.4230593
-0.54598749 1.45206 1.4569566
1.3507316 1.4367579 1.418018
1.470084 1.4314679 1.405714
3.3986902 1.4009978 1.4426601
3.4228673 1.4702004 1.4570668
-0.72551942 1.5551505 1.4244576
-0.66434884 1.5646938 1.420707
-0.55390453 1.5477256 1.4558431
1.3481821 1.5392728 1.4418914
3.4238007 1.573795 1.4329923
-0.71914017 1.6339312 1.4252678
-0.6577813 1.6657705 1.4212302
-0.53932923 1.6362915 1.4545463
1.3567618 1.6519458 1.4475439
3.3893328 1.6497793 1.4242402
3.4245842 1.6765076 1.4405969
-0.71698165 1.7610652 1.4260385
-0.66875505 1.7442663 1.4182162
-0.5442372 1.7360471 1.453799
0.098269209 1.7984701 1.4924586
0.16356981 1.790175 1.4414206
0.23920015 1.7909173 1.4842241
0.32550409 1.7964441 1.4528233
0.4337801 1.7972225 1.4658976
0.5331617 1.7946467 1.4607666
0.62883312 1.7965897 1.4415233
0.76419473 1.7976805 1.4419731
0.82682192 1.7948467 1.4406236
0.9356029 1.7979565 1.4651284
1.019522 1.7969935 1.4469309
1.1537929 1.7968872 1.4488299
1.2449064 1.79667 1.4495192
1.3307072 1.7760544 1.4280682
1.5795614 1.7954999 1.4773077
1.6386199 1.7968364 1.4470651
1.7375152 1.7963536 1.4469647
1.8442688 1.797765 1.4602466
1.9440602 1.7941012 1.4689336
2.0426543 1.7978681 1.4480257
2.1157198 1.7954354 1.474125
2.3080184 1.7999761 1.4813464
2.5413353 1.7993838 1.4763372
3.3967047 1.7446041 1.4533876
3.4343054 1.7678297 1.4703481
-0.71627122 1.8242258 1.4147217
-0.67701781 1.8209953 1.4080728
-0.52627122 1.8213289 1.4928128
-0.4526253 1.8532419 1.4414259
-0.36376351 1.8422468 1.4552742
-0.25680688 1.8528589 1.4391565
-0.16255644 1.8622676 1.4263151
-0.048394199 1.8411018 1.4293537
0.053515315 1.845999 1.4264991
0.14154243 1.830794 1.4527358
0.2361936 1.8269752 1.4518036
0.34191048 1.8284352 1.449013
0.42339784 1.8242509 1.4525886
0.55789983 1.8210144 1.4360234
0.63790578 1.8377374 1.4194432
0.75172919 1.8343449 1.4147922
0.82807457 1.8112776 1.4161513
0.95067018 1.8099923 1.4596411
1.0635259 1.8068845 1.4624201
1.1464815 1.8067607 1.4764974
1.2446978 1.8057096 1.4424415
1.3323784 1.8199148 1.449672
1.590716 1.8031957 1.4788866
1.6676266 1.8053007 1.4630229
1.7377485 1.8044083 1.4777195
1.8514154 1.8065116 1.4590585
1.9365872 1.8066924 1.4493243
2.0511036 1.8127961 1.4529448
2.1182485 1.8061664 1.4300885
2.2344263 1.8077492 1.4483056
2.3579488 1.8083456 1.4489863
2.4599755 1.8121905 1.4504172
2.5720427 1.8108419 1.456391
2.6436517 1.8087438 1.4801917
2.7805977 1.811289 1.4589502
2.862623 1.8106951 1.448717
2.9610016 1.8181299 1.468678
3.0509169 1.8134136 1.4616855
3.1358151 1.8144233 1.4492481
3.241384 1.8176563 1.4466505
3.3565109 1.8116722 1.4448398
3.4150875 1.819828 1.4758377
-0.52963954 1.9575964 1.4200566
-0.4180373 1.9449404 1.4136157
-0.3297002 1.9673643 1.4150461
-0.24758844 1.9531094 1.4159348
-0.16433468 1.9564538 1.4117002
-0.054162819 1.9541198 1.4067856
0.045675132 1.9387193 1.406202
0.16654786 1.9375139 1.4037828
0.26176649 1.9798045 1.4058514
0.34819052 1.9270282 1.4068468
0.46020269 1.9381078 1.4047332
0.54330152 1.949267 1.4030572
0.62947786 1.965868 1.4030434
0.74489617 1.9544184 1.4027824
0.83489406 1.9568719 1.4067538
0.92369998 1.9458692 1.404021
1.0255907 1.9775696 1.4028209
1.1419798 1.9646606 1.4038028
1.2399073 1.9605224 1.4036511
1.3111708 1.9754814 1.4033976
-0.53168726 2.0183399 1.4237583
-0.45941302 2.0136943 1.4118152
-0.37440267 2.0208318 1.4169344
-0.23484883 2.0165672 1.4146954
-0.16302615 2.0141256 1.4136896
-0.042759091 2.0093279 1.409852
0.038821578 2.0138609 1.4041036
0.13473913 2.0048099 1.4150294
0.25078475 2.0266752 1.4079039
0.36633804 2.0186856 1.4052839
0.42716652 2.0032663 1.4078126
0.67412657 2.0047672 1.4018849
0.72441983 2.0116355 1.4231745
1.1518763 2.0094349 1.4156924
1.2504741 2.0222526 1.4060688
0.19184288 -1.8171711 1.5350714
0.25159267 -1.8146311 1.5547577
0.37680021 -1.8102574 1.5713363
0.4425894 -1.8076768 1.5587659
0.58045441 -1.8046203 1.5628209
0.65941095 -1.8051536 1.5551896
0.75662786 -1.8049545 1.5612184
0.84263939 -1.8035389 1.5550584
0.94962668 -1.8025758 1.5318229
1.0885456 -1.8012578 1.5663738
1.1602196 -1.802135 1.5636849
1.2606426 -1.8027081 1.5537539
1.3517354 -1.8065121 1.5523567
1.5931648 -1.8009541 1.5238563
1.646124 -1.802732 1.5695177
1.7576185 -1.8020648 1.5602931
1.8370757 -1.8020082 1.560987
1.9769285 -1.8051854 1.5678542
2.0517323 -1.8024848 1.5480068
2.1477933 -1.8060939 1.5413183
2.2504663 -1.8109225 1.5334924
2.3400095 -1.8119147 1.5370359
2.4364092 -1.8136344 1.5341374
2.5487413 -1.8181325 1.5613341
2.6637015 -1.816153 1.5545632
2.7563622 -1.8188417 1.5476565
2.8483419 -1.8191988 1.5376105
2.9458809 -1.8212591 1.5168291
3.0331645 -1.8217075 1.5269115
3.1268337 -1.8241364 1.5132267
3.2409422 -1.8266548 1.5275621
3.3433304 -1.8278476 1.5504808
3.4048219 -1.8190222 1.5367322
0.19845842 -1.7980251 1.5692648
0.23553237 -1.7961639 1.5266718
0.34626335 -1.7985883 1.5526381
0.45866466 -1.7999506 1.5277789
0.57085979 -1.7982118 1.5638125
0.6501019 -1.7961979 1.5496528
0.75514293 -1.7935658 1.5617412
0.8549847 -1.7926078 1.5582294
0.9712038 -1.7908694 1.5548635
1.0501665 -1.795385 1.5738994
1.1700472 -1.7944027 1.567908
1.2637262 -1.7941874 1.563627
1.3148214 -1.7411828 1.5493054
1.5837197 -1.7937622 1.5331576
1.6420319 -1.7975559 1.5429891
1.7282976 -1.797666 1.5248457
1.8495656 -1.7975993 1.5631144
1.9363775 -1.7973211 1.5452672
2.0468965 -1.7910995 1.5397983
2.1498551 -1.7960812 1.5479283
2.2229428 -1.7958066 1.5494312
2.3327482 -1.7895805 1.5209579
2.4483471 -1.7903372 1.5291919
2.5474546 -1.7943077 1.5530773
2.6603951 -1.7879986 1.5278478
2.7411826 -1.7879968 1.5346684
2.8536398 -1.7867362 1.5277104
2.9584894 -1.7821553 1.5241601
3.024951 -1.7830576 1.5508718
3.1361971 -1.7782443 1.5313518
3.2218277 -1.7795706 1.5229216
3.3644805 -1.786481 1.5364635
3.4051869 -1.7630847 1.5403284
1.3134377 -1.6488184 1.5633745
3.4066126 -1.6687222 1.5348469
1.3109511 -1.5554914 1.552235
3.4120555 -1.5641809 1.5452621
1.3137293 -1.4450681 1.5524054
3.4150999 -1.4633598 1.5409509
1.3143387 -1.3233749 1.5596459
3.396677 -1.3438233 1.5123188
3.4109359 -1.3414483 1.5440446
1.3138933 -1.2363517 1.5638235
3.4135323 -1.2586339 1.5372727
1.3146048 -1.1456378 1.5564883
3.4160938 -1.1421254 1.5394639
1.3128986 -1.0682857 1.5467119
3.4152374 -1.0504979 1.5356382
-0.59001899 -0.92689753 1.5127358
1.3152312 -0.94810551 1.5602064
3.417191 -0.95194209 1.5317369
-0.58727157 -0.85323846 1.517025
1.3175201 -0.86741769 1.5444391
3.4195335 -0.84602058 1.5398808
-0.58638257 -0.7478258 1.5429611
1.3177761 -0.78608489 1.5534718
3.4202147 -0.75158936 1.5292225
-0.58487129 -0.6545971 1.5518205
1.3191071 -0.67592621 1.5435293
3.420012 -0.63249308 1.538703
-0.58151913 -0.55631638 1.5396898
1.3212218 -0.55520755 1.5539727
3.4222345 -0.53793216 1.5282646
-0.5801419 -0.45415428 1.5176799
1.3242548 -0.46283108 1.5528966
3.4243462 -0.43435982 1.531484
-0.57656902 -0.3461605 1.5575317
1.3248883 -0.35386264 1.5546093
3.4212761 -0.3375566 1.5236794
-0.57330883 -0.24602419 1.5431353
1.3271005 -0.23624417 1.5523756
3.4282057 -0.25693876 1.5230479
-0.57384658 -0.1309083 1.5309548
0.53696829 -0.10195461 1.5453255
0.71184826 -0.10100919 1.5543158
1.2876382 -0.1013395 1.5360674
1.3208525 -0.11879201 1.5511489
1.5820652 -0.10307446 1.5340294
1.6560118 -0.1042324 1.5510798
1.7432474 -0.10681125 1.5431871
1.8721533 -0.1067016 1.5518546
1.9590652 -0.10844903 1.5415367
2.0623507 -0.11008309 1.5399956
2.1706796 -0.11118463 1.529388
2.2648473 -0.11191803 1.528999
2.3556032 -0.1137003 1.5123224
2.4206271 -0.11045435 1.5523612
2.5580227 -0.11553068 1.5481391
2.6445951 -0.11622924 1.5569658
2.748147 -0.11787403 1.5270324
2.8243179 -0.11769427 1.5270306
2.9240627 -0.12076701 1.5118194
3.0465143 -0.12190428 1.5147928
3.1596694 -0.12489372 1.5124242
3.4223101 -0.16484253 1.5336527
-0.551548 -0.074748226 1.5610021
-0.44766384 -0.063900203 1.5742929
-0.33949482 -0.067896076 1.5708523
-0.24189988 -0.069353253 1.5610778
-0.15055129 -0.072657183 1.555298
-0.055325605 -0.074099131 1.5539912
0.046842605 -0.075883478 1.5581582
0.13375844 -0.078223467 1.5539643
0.2470028 -0.078535363 1.5758345
0.34251812 -0.080464803 1.553093
0.44804925 -0.083550192 1.5592626
0.54429108 -0.084137119 1.5501485
0.63400191 -0.087152839 1.5554472
0.74405301 -0.089068003 1.5528271
0.83566356 -0.091053434 1.5529872
0.93478155 -0.092685893 1.5563085
1.0396271 -0.093682513 1.568948
1.1436782 -0.095848143 1.5525335
1.2385757 -0.096992441 1.5541406
1.3197451 -0.09566541 1.5303574
1.6217939 -0.098479912 1.5639225
1.7422075 -0.097622603 1.5659486
1.8339251 -0.099309117 1.5326762
2.0718615 -0.099995017 1.5520117
-0.57065845 0.19813836 1.5063268
1.3337746 0.18499523 1.5332828
3.4308529 0.14378211 1.516048
-0.56276047 0.24804042 1.5575005
1.3360296 0.27681696 1.5409868
3.4336364 0.22555156 1.5420766
-0.55902177 0.36337525 1.5525725
1.3406357 0.35272697 1.552093
-0.56041622 0.46725914 1.5386877
1.3438473 0.45409495 1.5341046
-0.5571329 0.56819838 1.5613178
1.3440502 0.54619622 1.5302331
3.4378831 0.57915199 1.5095105
-0.55391383 0.67094141 1.5849197
1.3444711 0.63684583 1.5418453
3.4345505 0.66225207 1.5126512
-0.54945374 0.77250087 1.5516747
1.3474846 0.73668724 1.5351404
3.4298186 0.76618576 1.5350014
-0.54640061 0.86894655 1.5795984
1.3444723 0.84076452 1.5397322
3.4289308 0.8566106 1.5285746
-0.5479269 0.95436615 1.5839105
1.3461611 0.9479357 1.5425029
3.4306636 0.95053053 1.5284109
-0.54561675 1.0651282 1.5656884
1.3469385 1.0441742 1.5427476
3.4294181 1.0619953 1.5211298
-0.54291618 1.1446259 1.5557157
1.3459961 1.133743 1.5389864
3.43062 1.1613061 1.5158023
-0.54206461 1.2205186 1.5905045
1.345993 1.2535353 1.5379999
3.4302113 1.2576497 1.5129303
-0.53747743 1.3449359 1.5781103
1.3463724 1.3518944 1.5333236
3.4291 1.3628893 1.5128865
-0.53707784 1.4374642 1.5885932
1.3474498 1.4468853 1.5250202
3.4331133 1.4684907 1.5163918
-0.53175545 1.5433899 1.5762169
1.3501091 1.5476689 1.5340666
3.4313498 1.5724411 1.5083343
-0.52976489 1.6361146 1.5823947
1.3501332 1.6534083 1.5292392
3.4263055 1.6658335 1.5122416
-0.52788973 1.7362076 1.5714765
-0.13191517 1.7962445 1.553673
-0.061514303 1.7965586 1.5327539
0.033522189 1.7970209 1.515008
0.14167003 1.7954555 1.545907
0.26074702 1.7943715 1.5808887
0.34650177 1.7957158 1.5739458
0.4471212 1.7971818 1.5617781
0.5491612 1.7968237 1.5492961
0.64552355 1.796486 1.5376306
0.75740695 1.798569 1.5744267
0.85146832 1.7980139 1.558876
0.95335853 1.7988857 1.5623654
1.0533352 1.7948925 1.5660892
1.1491146 1.7956195 1.5382495
1.2532414 1.7988309 1.5507514
1.3411708 1.7822179 1.5276136
1.5910378 1.7966815 1.5259534
1.6485214 1.7973331 1.5383092
1.7558233 1.7978232 1.5511029
1.8532342 1.7960227 1.5235398
1.9637328 1.7956438 1.5506003
2.0576341 1.7960629 1.5406733
2.1311049 1.7982084 1.5283659
3.4262989 1.7648308 1.5160987
-0.51793772 1.8258235 1.5878246
-0.44079459 1.8441907 1.5685549
-0.34472713 1.8428115 1.5640574
-0.2681762 1.838567 1.5516644
-0.15487044 1.8367218 1.5671692
-0.047638148 1.8362761 1.5513116
0.04590451 1.8311603 1.5449903
0.15819436 1.8286271 1.5681033
0.23388989 1.8295231 1.5734076
0.35409653 1.8269422 1.5647669
0.45649242 1.8209395 1.5557575
0.55511111 1.8189908 1.5704269
0.63508499 1.8215293 1.5513655
0.75612295 1.8132696 1.5601521
0.84485126 1.8106722 1.5309578
0.93124342 1.8055065 1.5658395
1.069296 1.8082528 1.5593431
1.1596131 1.8075891 1.5501088
1.2533205 1.8047557 1.5457194
1.3153155 1.8073434 1.5515175
1.5921992 1.8083048 1.5174303
1.6656077 1.8074789 1.5517287
1.7393209 1.8059148 1.5572942
1.8632736 1.8056453 1.5418897
1.9575291 1.8071573 1.5393457
2.0586042 1.807065 1.5378059
2.1469939 1.8081952 1.5309461
2.2672889 1.8083545 1.5248734
2.3492258 1.809172 1.5388085
2.431077 1.8092232 1.5265051
2.5293522 1.8116852 1.5335191
2.6596789 1.8122324 1.5482893
2.7237077 1.8136841 1.5426786
2.8438797 1.8132747 1.5380582
2.9451396 1.811363 1.5317023
3.0684106 1.8162334 1.5404563
3.1620979 1.8143959 1.5181146
3.2587471 1.8174745 1.5123963
3.3344283 1.8147433 1.53526
3.4278111 1.8205217 1.5160127
0.18175471 -1.8141978 1.6033084
0.24012823 -1.8214228 1.6103611
0.38656029 -1.8236051 1.602723
0.43647236 -1.8132923 1.6047324
0.58386433 -1.8122256 1.6111126
0.60232377 -1.8165073 1.6108162
0.71627092 -1.8073717 1.605239
0.77057576 -1.7980833 1.6098671
1.3244008 -1.5213456 1.6010609
-0.58804476 -0.93930477 1.6063726
